-9.722247655218708706e-01 -1.162087921732794238e-01 -6.096639734339110994e-01
-5.833511986117135839e-01 -1.430414381361907739e-01 -3.875982360402736582e-01
-1.755472994126840436e-01 -9.983228976334426741e-02 -1.490533816162855629e-01
-4.823100839747204716e-01 -2.322247972407377736e-01 8.806724780961265875e-01
-5.398476227493850255e-01 -3.224187256439551841e-01 -9.282117687455158084e-01
8.464962539057429014e-01 -3.258715608936581520e-01 -6.435639724374930815e-01
4.460763086079687079e-01 1.405415833788795366e-01 9.149278422470528138e-01
-7.677657686675242177e-01 -5.982739091276104842e-02 -3.748678595189771645e-01
6.865223856610013220e-01 -6.844975612487872452e-01 5.085868283776671106e-01
-2.147800344847905218e-01 2.740275873305615395e-01 2.339030290452087657e-01
-5.902427255176584744e-03 8.818858141123327998e-01 -7.654494686332933284e-01
5.931302418052873948e-01 7.744345851942210368e-01 -5.913668615818528096e-01
-8.456779160508703930e-02 9.711406197526676332e-01 -9.808567299114137050e-01
-9.731354914806663592e-01 6.925092027918219317e-01 5.159216683600471587e-01
-3.924735329986923094e-01 3.305703665280364523e-01 -3.682877720165569357e-01
-3.121410637481398798e-01 -2.327123758708798604e-02 4.705898096322977397e-01
2.315139902380150549e-01 -9.196341115641369912e-01 7.727410697489121849e-02
3.856804342643889716e-01 -6.203615703086774458e-01 -1.673273957125458455e-01
4.587219761833026266e-01 -1.959785057975263825e-02 8.632011667159367185e-01
-2.123791843823676362e-01 5.317490224142157329e-01 -4.296437085718900484e-01
2.701811910715690712e-01 -5.774388863187284171e-01 5.346414635919531921e-01
-8.170358501633973036e-01 -6.712754336379230802e-01 -2.194149845070374472e-01
-3.170217431204093717e-01 -5.335937430149918503e-01 3.782591392545771036e-01
-7.464699941645883685e-01 5.402250517632271043e-01 1.360898789678914866e-01
-9.211593212258402386e-02 2.134496037801889012e-01 -3.036001821202746198e-01
-3.970722654168276633e-01 1.565523694679625544e-01 -5.897624840756912068e-01
4.313465950825792761e-01 5.681026526889983996e-01 2.344767495658850454e-01
-5.894936894019703333e-01 -7.460060329012788705e-01 -9.127236595489323090e-01
-2.753896747809422840e-01 -2.018655143784188477e-01 4.884044970479560488e-02
2.181548859041041732e-01 -3.316945052059880328e-01 -5.277082830311752293e-01
5.808156727357859372e-01 -5.976858866511166601e-01 9.546399196218645355e-02
3.488591985412497487e-01 -3.025029988957256832e-01 -2.337065092120128029e-01
-8.204289080422754177e-01 -5.525742104724326031e-01 -5.234410921211483103e-01
8.805352711076960270e-01 -2.573020475088635961e-01 5.424362882835627175e-01
3.572698107046777261e-01 -3.246877571800585449e-01 2.963182969634376995e-01
-7.134976136369451660e-02 -2.482696337300822342e-01 3.270679852089633521e-02
8.081074299234279890e-01 4.974009919467910906e-02 7.860457359677039957e-01
-8.231560416639044364e-01 9.708628734748456224e-02 -6.610462444545981420e-01
5.213916206439935808e-01 6.947381667573470088e-01 -6.510615278205558187e-01
6.301442380745033711e-01 1.735965666805224517e-01 3.800712011653084588e-01
-5.438920341709524431e-01 -2.433041380360089490e-01 -3.989438082020584364e-01
5.408416452168604005e-01 -1.051269675200906806e-01 -1.951258799403285948e-01
-7.541887627261570914e-01 5.650059863435895613e-01 -2.243537033502731592e-01
2.352913260202540435e-01 -4.728082681054932707e-02 6.897877778232991419e-02
-8.299421615315450973e-01 7.268966223659590886e-01 -7.143855368399938399e-01
8.145669391677144988e-01 -1.937713131541986267e-01 2.252655918839154836e-01
9.619813052357387706e-01 -2.781401989461799729e-01 5.214618912834430020e-01
-4.493475268551536117e-01 3.860006574529047385e-01 -1.058391525832689389e-01
4.681616469921373036e-01 -3.798091226169510448e-01 -7.356138083336147826e-01
-4.834071893755042537e-01 5.696459586160133037e-01 -4.781264316713296214e-01
-2.759332996340655431e-01 -1.511858407553452466e-01 -1.030716084900212826e-01
-3.503305068906698572e-01 -4.813421487595350157e-01 -1.479061167268526378e-02
-8.452092786491384180e-01 9.232364930057580521e-01 4.098141819910770811e-02
-7.630433620379123427e-01 -2.061575436574204778e-01 -7.509438076750771796e-01
-3.694662703341416304e-02 -6.278814534240609868e-01 1.406862389344343267e-01
-6.791013627844243450e-01 9.468262242835144837e-01 -3.407144838481497295e-01
-9.702214485119181608e-02 -7.504518260942997232e-01 6.297569556154991458e-04
-4.847211830786277154e-01 -5.227639388051767005e-02 5.345572409053180873e-01
-9.882350447666182758e-02 -7.201697426904073440e-01 -2.085418376685914676e-01
-9.674706951697248369e-01 6.718861388687033531e-02 -2.883383951534070899e-01
8.284368310775614974e-01 -5.357887893509539756e-01 1.856473477317595044e-01
-1.329594256444163736e-01 4.475998335219793511e-01 -2.166501688210806797e-01
2.546196549311044444e-01 3.876716422794870831e-01 -3.793307111240165064e-01
1.664782655520529731e-01 1.797615068300047747e-01 -8.474740490721319741e-01
6.270725814982202051e-01 -4.572529275600271254e-02 2.956864662901259599e-01
-7.410303981062683620e-01 -8.375380586893802493e-01 -5.287396427006099131e-01
1.824620696409569587e-01 -5.614817416399936478e-01 2.432247936402647248e-01
9.839626690468853409e-01 -8.830122313445391002e-01 8.303334202656580398e-01
-6.516608078451396890e-02 7.033916693062768344e-01 -4.570772999338859055e-01
-8.623711665202030696e-01 -7.629728588632304076e-01 -3.273159415067152800e-01
4.456523657147387074e-01 4.956227388918948429e-01 8.744502355815585160e-02
7.430468423671942046e-01 4.674658556179494551e-01 9.500362993661903843e-01
7.086563726525768603e-02 1.704093799807679041e-02 -4.116846196609282027e-02
-7.237780612667304991e-02 1.025693014386777902e-01 -7.854261496652785723e-01
1.122688647963807074e-01 2.931637229518332388e-01 -1.608653190249551002e-01
8.370988213054463278e-01 -8.260238170600052721e-01 -6.927888011308282190e-02
2.150727083238287984e-01 -4.332879131513071580e-01 -5.314196892939705430e-01
7.192596823225888558e-02 -7.658437907592919869e-01 6.479661654405599602e-01
-9.391816009473133997e-01 3.471854183496206336e-01 -7.341170847267615152e-01
-3.849630482519580954e-01 3.416336407933549535e-01 2.040860905442578588e-01
-4.208012675724487894e-01 -5.491159767987182638e-01 3.198833083196026550e-01
-1.917838303025617974e-01 6.131735854225378590e-01 -4.755196556441800837e-01
-1.895027648214493432e-01 -2.907178068632972345e-01 1.934573812970052376e-01
-2.350305265084315365e-01 -5.715444775711182174e-02 5.344050320398137099e-01
-3.169115033903973505e-02 6.774712045760123980e-01 -9.516053890904656587e-01
-3.590214968330948664e-01 8.238274249386354220e-02 -4.086468032240200277e-01
9.477449612112601729e-01 -6.817546468021139505e-01 -8.505193419007770483e-01
-3.726249564191181363e-01 -6.621821121241430186e-01 6.459451426664331031e-01
-6.029638498155699411e-01 -3.680793620583037301e-02 3.542435665287286817e-01
1.360542530315492216e-01 -2.584253688388732928e-01 3.519943458855177010e-01
-8.926117907168654719e-01 9.893242315071891779e-01 6.438649803510558822e-01
-5.551844103701991662e-01 3.652421336668719154e-01 2.876011439816947846e-01
-3.849639070428689247e-01 1.383498310883758131e-01 9.601047002077510439e-02
-3.214118010637034284e-01 -7.338467906621944925e-01 4.320711515945501180e-01
7.238639263173037852e-01 -4.052972600564045957e-01 -5.798630648180691516e-01
2.888489902158156153e-01 1.301072212861781041e-01 -2.888487928845007158e-01
-6.078534779375556196e-01 5.908132373284459282e-01 3.329761768447956349e-01
4.242990951354009277e-01 4.089292601395915772e-01 -6.004328058785881606e-01
-8.996356674964122169e-01 6.259834381210956922e-01 9.533134756528237330e-02
9.040861791028605987e-01 1.108441158422754022e-02 5.217595232527496574e-01
1.508005674376873551e-01 -2.510236189859196831e-01 2.527415794094444168e-01
-4.338986776908790310e-01 -6.363896042742420156e-02 1.517623199091471253e-01
9.872320411848795052e-01 -3.248160664801733044e-01 -3.969057136120022200e-01
-3.304551879769749845e-01 -2.830387694357121633e-02 4.074909226269813334e-01
-6.004950889855787954e-01 5.763902698357731280e-01 3.353923869276789205e-01
-3.755497046899327063e-01 6.082771001554595353e-02 -7.369446008848736795e-01
6.301755054151919611e-01 5.512414542020817043e-01 -3.248873726605105983e-01
-3.873054233793621903e-01 -3.466559493074742870e-01 1.779538873376107500e-01
-9.309513380726258669e-01 4.400263021982460665e-01 -5.588042454521706670e-01
-5.388253150521974399e-01 -7.343214565748302780e-01 5.404466873303965802e-01
-2.085537271719155039e-01 5.255027047933119588e-01 2.457681447102608718e-01
3.471713936734480144e-01 5.643873898439245584e-01 -6.991871695640958784e-01
8.997797093322322803e-01 -8.129323152740596248e-01 -6.223435681484403015e-02
4.642690759652797206e-01 1.987736310738229262e-01 -5.009997644808730222e-01
-3.745807019277766492e-01 1.728650172372357338e-02 8.719492128160891142e-02
-3.430495498097853591e-01 9.659444605513275439e-01 -2.367160454125081248e-01
1.628147761394141413e-01 -7.274877741688242638e-01 3.744103688573168220e-01
-9.466343886672917707e-01 -7.988423108328180922e-01 -2.684002837947783160e-01
9.077035487163079841e-01 8.135561808335819989e-02 -9.829232491814505757e-01
-3.905911801339962408e-01 -2.877731856843099290e-01 -4.387308175621500439e-01
-2.716365833342128666e-01 -8.661723021292685454e-01 2.523803524572696411e-01
8.273639567191762856e-01 -5.574968421908880201e-01 8.267755234818821020e-01
-7.454911702506935578e-01 -7.510605633611516785e-01 -3.260807076427538753e-01
8.096359501562929717e-01 -7.139185252033956042e-01 5.772877255495940663e-01
-1.566937661436433316e-01 3.595991341999181246e-01 4.805627939057344200e-01
-2.823381403912931797e-01 -6.943395120175418489e-01 8.705914226368876019e-01
-5.485509861103229357e-01 -8.435820275727089479e-01 -3.406488043131075116e-01
-7.003504110272203986e-01 -3.048678924129086254e-01 4.962195563099445206e-01
1.607122189856995953e-01 -5.035836832441299427e-01 4.251944368087636761e-01
9.880144671623286579e-02 -9.088406024888101564e-01 -4.346430145951325485e-01
-7.173883867330060893e-01 -9.395606758799955882e-01 -8.574616030995583227e-01
5.700904921482984333e-01 -1.670422406261126425e-01 -4.000490524717974505e-01
1.672620556066700126e-01 8.034433235784720351e-01 6.141323924129271639e-01
-8.339232901008469812e-01 -8.676957109420654346e-01 -7.123523142452512502e-01
1.224598771339478476e-01 -4.185715130742872492e-01 3.440484037682549623e-01
-3.333729643431264100e-01 2.777557225489244441e-01 -8.690587142156402933e-02
5.556199500668564939e-01 -7.482211122315166607e-01 -5.309714727213008523e-01
-5.516421472672899257e-02 -5.957064883925552445e-01 -2.261681839007114846e-03
7.090787315686034598e-01 9.323152235032049484e-01 7.493983586741945757e-01
9.819422766467401642e-01 1.062651690753598499e-01 3.364780386318102501e-01
5.818535682740074710e-01 -4.334368440462270100e-01 -1.793834128627558311e-01
-8.752135301438020987e-01 -5.847316013789317646e-01 5.700317548315358973e-01
-5.373119876274398132e-01 -7.801875247954123127e-01 4.144652376204753796e-01
7.076194661928999485e-01 -9.738448705100181124e-01 5.051792701576938160e-01
3.588074973929016864e-01 1.331966175061082003e-01 -1.954998297397079199e-01
-1.432621002771704011e-01 -2.761538021322249015e-01 3.362280500596146471e-01
2.392229643904288383e-01 -9.187722007278911751e-02 -2.061478086890582428e-01
-1.177396701184256211e-01 -7.688821770538248890e-01 4.770010212405328964e-01
3.410967652859786536e-01 -4.747243774375488612e-01 -1.518258021424948034e-01
2.525348865453387881e-01 -5.729211492189162369e-01 -6.224940833081291647e-01
2.999575990158344641e-01 -1.181419960393388924e-01 -4.594095997619923599e-01
-3.371284825183183398e-01 -7.132735955832224251e-02 4.231487119853672429e-01
-2.611844769068422667e-01 -3.100683202375808523e-01 -1.447903990376984140e-01
5.437353845687454834e-01 -3.457903933855812073e-01 3.443731976463035860e-01
-3.423594053588750047e-02 2.785741251419647235e-01 2.813492708847709634e-01
-4.246523672391848137e-01 3.027597634300754348e-01 -5.696850908013515458e-01
-1.940372235317157357e-01 2.317571207879616790e-01 -3.680139979008037465e-02
-2.009868953139361536e-01 1.713884120994893789e-01 -3.392765167482858502e-01
-6.915943665644591620e-01 7.726636814345496651e-01 8.634151542191375039e-01
-9.767421633729626018e-01 8.245772733142758826e-01 -6.774883820230105658e-02
2.719794974439607160e-01 1.518317290914384665e-01 -4.621556400117858843e-01
-5.747629693648995675e-01 9.855020583306565163e-01 -8.433742507500185948e-01
-6.744877205868399228e-01 9.687224034707316855e-01 -3.895963714814845158e-01
7.747913419162774096e-01 -6.041637156826819011e-01 4.558859853970256282e-01
7.672688985640420123e-01 3.292004445529136264e-02 -6.998007024040029389e-01
-4.122552145892969810e-01 5.050645366830225358e-01 8.588876631778172843e-01
-4.667887083181447294e-01 -4.447707414702365969e-01 6.510765527017072785e-01
5.167424330093578488e-01 -6.862151289286805289e-01 7.393934517436917542e-01
1.616286900477686417e-01 -2.328324879474085451e-01 -1.659776207463086184e-01
2.453423310749490160e-01 -6.007938850671571546e-02 8.470063220016110783e-02
-2.587578220289871722e-01 8.437117478057479802e-01 -3.666012210340210409e-01
4.225081173292575820e-01 -9.486436221282820158e-01 -2.959426620914928918e-01
3.533604977795293256e-01 1.127266013214490437e-01 9.536038436966407517e-01
-3.621104016375431001e-01 9.783402349895572447e-01 9.071740299249995976e-02
-5.010885238483758775e-01 -3.254558864989701844e-02 4.845774920516241480e-01
2.222355084938389680e-01 -7.823064275589547423e-02 -3.218163304417904769e-01
-6.234855376218492173e-01 -3.027571003173293654e-02 -2.108455297737679146e-01
-5.733741846908241291e-01 -2.644525182418226428e-01 -6.172079424815368753e-01
3.028894123385504344e-01 2.142673405847586865e-01 -3.450501741027078850e-01
-9.404550267915617878e-02 -6.469964025809166186e-01 -1.826997904855145460e-01
6.619488165975963012e-01 -4.847867587524760657e-01 -4.421574426819031844e-02
9.911803372859891992e-01 9.730732789922850179e-01 -6.696271730415794821e-01
7.725106970371852233e-01 -3.323646855765082786e-01 9.269172073970259884e-01
1.158416439754122174e-01 -2.520143399027892639e-01 4.722801413976278340e-02
7.305488515121209003e-01 -3.328746247907249933e-01 8.988473462322505991e-01
-1.227193500688030237e-01 6.336932839902028602e-01 -2.262304614574381922e-01
-9.117010235114652028e-01 -5.173941097430293512e-01 -5.209677501033327385e-01
1.021259322358065123e-02 4.776800255692735253e-01 1.655481464033985439e-01
-2.204584429476878493e-01 8.704001222160152595e-01 -7.861901757608487085e-01
4.348535737877812779e-01 -3.054266429973113151e-01 2.564951924924216854e-03
-2.034172613583297151e-01 4.553644620711851942e-01 -1.397291676742812468e-02
-6.638917535466389852e-01 1.442995062379882343e-01 7.062230599259702313e-01
3.327245397647802805e-01 -1.697011176858851944e-01 -1.814234617602829558e-01
9.896764913599379598e-01 1.729546562132543153e-01 8.971724086098435968e-01
-4.796410591643240351e-01 7.846300519027874509e-01 -8.697978590073758287e-01
-3.476984407476039762e-01 8.380124572341923761e-01 5.620313904214622180e-01
-9.822685010287462992e-01 -3.685692442023805887e-02 -6.433016442080876640e-01
-8.496514473602249096e-01 9.579232939712772898e-01 3.937278143281326415e-01
5.474916306337728189e-01 -7.313816590070120194e-01 2.306388212755758893e-01
-4.039988189354550285e-01 1.268073142690265553e-01 -7.540323530766514758e-03
2.657240844776510014e-01 6.027573499232213861e-01 -5.960916144098740155e-01
5.146661563679318929e-01 -1.747230633506692554e-01 -1.017380385607609267e-01
-6.664397401252487585e-01 6.217589371108517282e-01 5.567723220954856611e-01
1.901391608743894235e-01 -1.161920325907280088e-01 3.380274530332256222e-01
-9.838343310253254426e-02 2.853746076938497578e-01 -8.913027021424441143e-02
-9.319909846714019563e-01 -7.188153234076629650e-01 3.245506434652276617e-01
4.511171921011750130e-01 -2.375672352895582817e-01 -2.352390114387086228e-01
-5.675964216670940088e-01 -9.027044948228045707e-01 6.627013351721243450e-02
-7.605699508905628958e-01 2.607624392559853566e-01 -2.459262218031466052e-01
-2.893304829762701202e-01 5.612985848926023147e-01 -7.269502965624452528e-01
-6.381426534617350432e-01 -7.447251089383192246e-01 2.033260820512887701e-01
4.931017234213266875e-01 4.554070707106730453e-01 1.181332323562876707e-02
-1.061590923036885292e-01 -6.064133490821556061e-01 3.620778621197089375e-01
-7.499953072348232164e-01 -9.893344273212220097e-01 -2.381896249739297033e-01
7.766605576959145774e-01 9.843270613909412825e-01 9.324636149410943098e-01
1.601944456931281846e-01 -3.937536197522432252e-02 8.652377169792488942e-01
8.118304847349294695e-01 6.197307900551759369e-02 3.481648369963168399e-01
-5.287046763805770544e-01 2.094432939837539628e-02 -4.172091424001702631e-01
1.956266290059987534e-01 -5.214724775365952025e-01 -8.585873795955043519e-01
-5.379458696500332565e-02 -5.751370700245949097e-01 -6.467732973560849086e-01
6.752199400647588279e-01 8.248233151783458394e-01 -1.779623746431970022e-02
4.154697616209557798e-01 1.535925657295886815e-01 -2.957851078458353933e-01
-2.584213284631843854e-01 2.480872805410524184e-01 5.877467114082155497e-01
5.625404541217035037e-01 -7.365331790728414374e-01 -7.079420739880402103e-01
-6.376808034984325912e-01 -7.979914097402031059e-01 -6.823743266185924305e-01
3.353274740273083122e-03 1.206058267740813261e-01 -3.436283847859687435e-01
3.216627615333805257e-01 -4.174096952047638004e-02 9.177007107755132953e-01
-1.913123461811744863e-01 3.663899561335728916e-01 -9.010310756133833865e-02
-6.982506737326915625e-01 4.580742864546957088e-02 -1.855916619291353431e-01
-3.861566628367145149e-01 4.725736039275901246e-01 9.722809766621585137e-01
-4.434500232244921736e-01 4.066463603041257646e-01 -9.566585634541084904e-01
-2.548103255772232040e-02 3.687226837044160210e-01 4.452331820941670681e-01
-1.013985388046580449e-01 4.549052061762138277e-01 -5.879545390900118296e-01
1.220756732994901506e-01 7.823014414048544696e-01 -3.516449104925494229e-01
-9.815742220074475943e-01 -3.840516739718661809e-01 4.989711272109398355e-01
-7.304176077993221883e-01 2.933919852384967997e-01 -9.051235748878800891e-01
-8.425077180839187774e-01 -5.659604356300024230e-01 5.790804667488325119e-01
-2.530688318838811290e-01 1.892009909586863381e-01 -3.704407910219598143e-01
-8.304866990640130675e-01 8.693075458802813626e-01 6.091322034295476584e-01
-4.950615047134731550e-01 -3.558042840955037422e-01 6.761279381429248225e-01
-4.941870301855255110e-01 7.880120171732075685e-01 5.940180764262044111e-01
-8.473637216765023475e-03 -3.212118692106561979e-01 1.204633332811371055e-01
-3.849686978656287617e-01 -1.038254965223074644e-01 1.398375366000050857e-01
-5.833089329562485270e-01 -4.145094843534946061e-01 5.054396460976600114e-01
-1.195544701109738095e-01 -3.202131751556371309e-01 2.097085238325426815e-01
7.870509404701327982e-01 8.370009663138134881e-01 -7.259357027033106480e-01
8.144526866406457399e-01 -4.335373960286272310e-01 6.615947113546118974e-01
7.035626006654157605e-01 -3.456542750209016801e-01 4.123290026574022438e-01
3.631956873149933540e-01 3.629660156377588209e-01 7.693256248155555532e-01
4.308358390862850329e-01 7.509992924781766499e-01 -3.194387362307973266e-01
3.528895593383854501e-01 -4.825688089158565730e-01 2.797430685489827873e-01
-8.220075815095905236e-01 -6.410950785703118937e-01 -3.500033135253484140e-01
-2.339067856889164854e-01 -9.901682389557900366e-02 1.698652305234169546e-01
-1.347942240695300664e-01 1.141866701892411962e-01 -4.894789594834598745e-01
-3.331904939267154447e-02 -3.364766987421669575e-01 -9.159456319708962901e-01
9.373225877277330254e-01 -5.345266466953847440e-01 -8.205442668745197565e-01
-8.778818126789990073e-01 -2.516723139352374239e-01 6.927654571568855335e-01
-1.586910053624507599e-01 -1.484824652026451308e-01 5.810452882919436846e-01
7.353867197198332706e-02 -1.481631536024312634e-01 4.081217903916264378e-01
9.007154927638979514e-01 -2.241776146128301728e-01 9.756217619153313425e-01
9.339939107404432450e-01 2.771107665351482674e-01 5.294232966601513102e-01
-2.788173176653254148e-01 8.270591312266870054e-02 2.905798611823313671e-01
-4.480281397643827712e-01 -4.441746563829439623e-04 9.921734785695066616e-01
6.267167630422881830e-01 -9.953248003716786974e-01 -5.577535903784824889e-01
-8.917747530724412508e-01 9.022080591758040446e-01 -4.778185731458117758e-01
9.961479180562263780e-01 4.531295237645201895e-02 5.700015654181911362e-01
-1.006112486421478248e-02 7.069700359843905657e-01 9.245284064557959258e-01
-1.419657402164624105e-01 5.484662806045267208e-02 4.718018159614105755e-01
6.250332274385811404e-01 2.112221017770022635e-01 -2.387198393436651411e-01
1.872391354688808240e-01 -2.416119281967649690e-01 9.823885096297954589e-02
-6.872456573994819573e-01 -3.174458798266021620e-01 7.289354191083451118e-02
6.945074632201039266e-01 -6.218313035366932473e-01 7.198014685795344203e-01
-1.528067840223165663e-01 -6.717226633683009984e-01 6.259114270616172870e-01
8.409996660831421389e-01 -7.803780541179689001e-01 -8.432053955436871195e-01
8.384293287411846984e-01 -9.694955085522663496e-02 -5.540976192335579642e-02
8.254727532461966222e-01 9.159233231067752667e-01 2.594121711051149415e-01
-3.470840945610535466e-01 9.635335122656248918e-01 -8.158771703776213080e-01
-3.405984075702254699e-01 -4.786589848776622858e-01 -4.345972702772506191e-02
3.409621053708122296e-01 1.541791013653539821e-01 -3.704093622689548226e-01
3.970509237252979884e-01 6.005639625618156563e-01 2.618505882356576553e-01
8.384223502468582945e-01 -1.581904116051101872e-01 -8.248237522943726585e-01
1.987981068760945047e-01 5.607621642254855265e-01 -3.923916991656422049e-01
-9.564674660158157815e-01 -4.709792277738522048e-01 -6.823645138329619275e-01
1.072305720064088280e-01 2.778926620542220838e-01 -1.582629145453167199e-02
1.299445930179350950e-01 6.748927624490633770e-01 -9.411235722813307003e-01
-6.276166156130623675e-01 1.153061045442017318e-01 8.797883252550748878e-01
-5.724501806894976008e-01 6.074769261167966006e-01 8.467931906404356501e-02
2.264873945100112640e-01 -6.211541467893230140e-01 -9.351688531303554708e-01
2.309969977201591917e-01 -1.716890297098833396e-01 3.260393838726594051e-01
6.611147851857891444e-01 6.615790959033752694e-01 7.795089053269592672e-01
4.443617611668091993e-01 -8.135193256042874688e-02 -1.842053848669766847e-01
-8.393571821191178062e-01 -7.089577460290800159e-01 -7.435956485729127152e-01
6.845094108802211030e-01 6.698683715712588915e-01 -8.903279354437134696e-01
8.116030831323269856e-01 5.636986520589936100e-01 -6.327093591431367514e-01
-6.485963390966386077e-01 3.564972855167266447e-02 -5.279776289453523841e-01
6.417779003384284087e-01 -7.489693827132114512e-01 5.839625704110098514e-01
9.630199024212692249e-01 4.325544386063791547e-01 -8.682058231466116549e-01
3.767332529297101051e-01 -8.658122728519784816e-01 -8.868834398297578137e-01
-1.915910912142597122e-01 9.950205197775624510e-01 7.867323487725090825e-01
7.445127984269798160e-01 -1.949041938923649353e-01 6.372207377058718425e-01
-2.960681819122225611e-01 -5.933809669734803061e-01 -1.415372813950439568e-01
1.433526104851878119e-02 -2.286897226258559623e-01 4.139685904182772158e-01
-2.677098105409987383e-01 2.090428795836071774e-01 1.829724297766143759e-01
-3.144247247181576888e-01 4.965894032189668850e-01 -4.175570089234028615e-01
-2.704887642985375762e-01 -4.160245169933224907e-01 -2.512099355707082537e-01
1.483731115286915370e-01 -3.510674905957311132e-01 -7.955737632020123407e-01
1.529238399201234833e-01 -1.206770379242025626e-01 -9.719937887405728782e-02
8.751015050270117834e-01 -8.273818530392719195e-01 5.593423149313756816e-03
7.677853363781373952e-01 5.432321674847292448e-01 -4.509389826427943060e-01
7.203876424513117049e-01 9.404219112993962293e-01 -5.412021168944802785e-01
-6.774421076203273051e-01 6.636145977237098981e-01 -1.195572550404811057e-01
-8.254230790571147613e-01 7.274325375494329338e-01 -7.643996697801778151e-01
8.771899528946930369e-01 -5.388675551871745517e-01 2.473066152231660764e-02
2.819043963583028334e-01 6.682553034273025494e-01 3.296630664718656067e-01
7.936864595896170327e-01 -3.328191015597951191e-02 -2.796591749732046939e-01
4.970499665743962070e-01 2.259998431117401230e-01 6.822608608993627755e-01
7.842398829488886891e-01 -5.088088603900874363e-01 -5.059513821834487057e-01
9.593623921024455603e-01 9.708895239020279844e-01 -8.207048194746455749e-01
-4.564432663817740710e-01 -7.971202627144374775e-01 5.693700181918284198e-01
7.218212801423810054e-01 -2.993046133585722593e-02 -4.006786660723837823e-01
7.978697084869886824e-01 -6.364067924697155432e-01 -4.437838943557856908e-01
-8.694971346241590071e-01 -5.819548763511591671e-01 -8.227487122207635117e-01
-6.015087499892283196e-01 -6.687348035119838885e-01 6.412130417681025651e-01
3.904319700858039366e-01 -8.898213275874714001e-02 -8.254605358747624244e-01
-5.770417754876303595e-01 -3.173997846310775972e-01 -9.700370421010304778e-01
9.833778388058572739e-01 -3.531569203677788482e-01 -4.367799496742168497e-01
2.985025139127955307e-01 -8.321579524446677256e-01 5.078816224869155960e-01
-4.196819508353392680e-01 -9.840013923010627606e-01 7.792800420910144243e-01
-3.016046339657360575e-01 6.931980583556710540e-01 3.918454016236090354e-01
4.711413492692014260e-01 8.546365320712651092e-01 -9.599860569673774879e-01
-7.445087184934636726e-01 2.179236898612776571e-02 7.644909394444654449e-01
8.729742637109912939e-01 7.265953905635914589e-01 1.587758875711142714e-01
2.457466018721601864e-01 3.728733885135669390e-01 1.938883663324717605e-03
-2.490073686160470395e-02 -8.373157464274639805e-01 5.028754053130410906e-01
7.757790129693925563e-01 6.375555905355331232e-01 8.738199370960848533e-01
9.906515334190518773e-01 -1.168765790899791990e-01 7.167127458624447112e-01
8.818427269855083628e-01 -2.241229630467117817e-01 -6.430270086590163248e-02
-2.574583712395672186e-01 -6.384774382243131319e-01 2.176937268165917150e-01
3.177998169283762775e-01 -6.955580199823415688e-01 -7.034141478992272933e-01
1.327505667068871742e-01 4.382477568841854770e-02 -1.411786552672464889e-01
-6.249953424474877783e-01 3.275259086563209743e-01 -8.846048755891804394e-01
-2.812887120753970738e-01 8.793140807260904634e-02 -9.608791724161738768e-02
5.963777702511426915e-01 4.010515727729911384e-01 3.483611421928167751e-01
7.034567160017454190e-01 -1.433806933410478879e-01 -4.654153264113323196e-01
-5.868984718038443987e-02 -7.703889645632701066e-01 -5.629211112420891006e-01
2.566952702142584752e-01 -1.571568043360923872e-01 4.157501406272119393e-01
-9.189837880099748224e-01 7.310615996338233336e-01 -5.718001945107742401e-01
9.716712726487225504e-02 1.594730936597189286e-01 6.028840179227543672e-01
3.984029616092768511e-01 8.571653519418805933e-01 -2.949597050568941725e-01
-1.996346288138630132e-01 6.354507205877549803e-01 -4.124148383456428812e-02
-2.833416823119092043e-01 -2.642688902781624161e-01 1.602765011232669679e-01
2.328217751610706654e-01 5.274284284753193441e-01 1.716425778281722714e-01
-3.199699728070834470e-01 5.862936104296666562e-01 5.946931639376789036e-01
-5.589784335182900188e-01 -2.132781223596086628e-01 -9.890716762246567484e-01
3.184694833736851499e-02 -5.195922266714957383e-01 -7.508721126362742915e-01
4.360771713138287820e-01 -1.546684575726401667e-01 -3.652975011445576126e-01
8.850593720578686652e-01 4.093528961821689127e-01 -4.115631711386849023e-01
4.210599736977665292e-02 2.469401601607087715e-01 2.236917829272109803e-01
9.260689963592848573e-01 -6.030435243018169578e-01 -6.654448126841785438e-01
1.850889701678031796e-01 8.572478723478204055e-01 9.476223750666241674e-01
1.225922428647414041e-02 -4.717525522555252038e-01 -3.271546747861997506e-01
5.371018495484764649e-02 -2.173638698249583945e-01 8.439632728860212152e-02
4.867660612298961298e-01 -5.208743048040663792e-01 -6.171890720541459707e-01
5.478776057086583995e-01 7.841941441897194442e-01 -9.599823864401968443e-01
8.928175460331012614e-01 1.699749849725681050e-01 3.289282010037952730e-01
-4.764799627194539755e-01 6.306830389222467526e-01 -2.341223953187514528e-01
9.786099788091567886e-01 7.748373990882114759e-01 -9.361620188004249332e-01
-5.041363686176120185e-01 2.580315274720622054e-01 -1.505827620091280128e-01
1.362501261652489526e-01 7.669541322866174626e-01 2.960928107749347671e-01
5.743550748259661498e-01 2.676974640457204999e-02 1.760611840567185560e-01
5.676705416679411753e-01 2.805828216295163657e-01 2.453618382243261120e-01
5.633813388136869049e-01 -6.556517445822943047e-02 3.842565712523899890e-01
2.150853112502180697e-01 7.309272593433785437e-01 -6.268412807540692244e-02
3.429153743498061790e-01 -6.746458982343398469e-01 7.344740546735016584e-02
5.182561997664755227e-01 -5.407354818950659281e-01 -3.590791415251952667e-01
1.122940391992636316e-01 1.958915072716838901e-01 4.249388932018352549e-02
1.056966191329249960e-01 6.247211331231922182e-01 -9.637911645248322667e-01
-6.147514928034639725e-01 4.624800079797811159e-01 -8.975470753816418290e-02
9.268338476316247965e-01 -5.956093849120335237e-01 -4.956763091582640224e-02
-9.427060681150501997e-01 -9.776344833759278985e-02 2.350705750678825368e-01
1.058197771083520533e-01 -5.187813319193080863e-01 2.590413903752741831e-01
9.941503357551760844e-01 -5.189141553764887727e-01 4.485293099316041143e-01
-3.958879753671559754e-01 -3.439219666618546084e-02 5.567981310758350622e-02
-6.634865587106918428e-01 -7.410026453298500515e-01 4.398157972721592479e-01
7.819909009420845658e-01 -2.851543643267195338e-01 -1.861133318759211619e-01
1.281497246424139758e-01 -3.273415895386475039e-01 8.763912306796170504e-03
-2.241248008008493720e-01 2.545103573228540972e-01 2.125244204239956913e-01
2.694335994153718716e-01 -1.936905176725799704e-01 1.383514075441085733e-01
-2.917796258618305383e-01 2.471917929692001026e-01 4.501342560753536226e-01
-3.251121892500634103e-01 -6.038555648680620225e-01 2.706979156197040215e-01
-6.626907933974260922e-01 -4.625746367778257873e-01 5.195700223918036098e-01
-5.641935801448071386e-01 -3.943216293435953257e-01 1.767433402574709600e-01
1.886467796285706267e-01 -6.197548313763390909e-02 -3.367744672625071489e-01
-4.839553570098790725e-01 8.800732180880360689e-01 6.542589067648306445e-02
-9.985830591059939865e-01 7.243298923794395591e-04 -3.543241564533583521e-01
5.290791194352163496e-01 -9.199462677871345084e-01 -5.863165900956937016e-01
-8.771871322733292287e-01 -2.382864545651272314e-01 -3.279312568718675269e-01
4.493494112038325938e-01 7.174040696034426068e-01 -3.399035885253356426e-01
9.074360117568839312e-01 -1.591934087915690965e-01 -4.571100459673029803e-01
-4.486627075227677675e-01 -3.860577218781046649e-01 -5.803566917867777342e-01
-8.035946109231929535e-01 -3.660187705510990069e-02 3.529917792452990088e-01
6.411364991890794451e-02 6.926517933495518475e-01 4.919304565708544352e-01
9.326445781749176378e-02 4.753453731721626885e-01 3.329913335917387973e-02
-8.356427266527631792e-01 -8.501054539197262505e-01 -1.148848517683229847e-01
-3.702885683540586004e-01 7.292540844141387479e-01 3.535500928599959458e-01
1.833633766096725570e-01 -3.663689566723086349e-02 4.393923199252887102e-01
-8.420685897713510171e-01 -2.614420500586542295e-01 2.245975265823765277e-01
-7.195692542600865549e-01 -1.518756290438211531e-01 -3.803694698280699615e-01
5.207685565433263220e-01 -7.815886247807214415e-01 -1.113519580959463490e-01
1.886950063717643400e-01 -9.946038269984206481e-01 -4.327797680450844453e-01
-3.750243532368506272e-01 -7.845718567152383249e-01 -6.437560977579306343e-01
-9.828405257666389394e-01 7.607002018044396567e-03 6.633506746869222148e-01
8.401640899252166284e-01 5.468211767913530030e-01 -8.322750997637424764e-01
4.253054993834826658e-01 -6.633393683389635642e-01 -2.892588791734829190e-01
-3.659613618224850096e-01 -2.000663881108796505e-01 3.791598621798482061e-01
1.510053548895347597e-01 -9.016962496430244167e-01 -2.541994570074048720e-01
-3.320504426337577697e-01 4.325093598195586808e-01 -1.655850115902630648e-01
-4.081933161944732436e-01 -7.737090213613272427e-01 -6.042500240798427402e-01
7.197829748581737741e-01 -2.226084855208746716e-01 -6.206675903359610835e-01
-4.777630229035382814e-01 5.585471719261086987e-01 -1.384769207780820466e-01
5.240082517275955754e-01 7.169986036890850789e-01 4.280995588667158014e-01
-6.687133455002886029e-02 -2.890005741821718988e-01 2.912608536892065114e-01
-7.914021444490660917e-01 8.775886802225184580e-01 -8.337186581045387401e-02
3.866911474150530048e-01 5.600020463261065062e-01 7.075591553642537335e-01
6.250957886675588826e-01 6.410864107500687803e-01 7.616625597910073875e-01
-2.426831371893984346e-01 -8.474811251391388689e-01 2.354748637550263535e-01
-3.169952051554030675e-02 -8.918932087348788174e-02 -8.098613261800735597e-01
-6.837440427559798861e-01 -4.281590714775955209e-01 -9.787264619567290769e-01
3.717025896012189912e-01 4.050928078462055493e-01 1.590982002018141994e-01
-1.408110933559691413e-01 -5.866174719080051725e-01 8.515839644631764127e-01
-4.798832907597609387e-01 4.846092297977653840e-01 6.962217082263428836e-01
-5.651363202967255583e-01 -3.169902992754073945e-01 7.408466541490510426e-01
3.817452433409865287e-01 -2.466015700062628435e-01 7.647061081656578718e-01
-8.332399978392545092e-01 -1.000355806453802343e-01 5.956982399620209812e-01
3.209943113188949426e-01 9.359436190224849073e-01 1.023865126012213217e-01
7.739938737166008886e-01 -6.603448135081643189e-01 -5.815115327735573825e-01
-9.828061236697619441e-01 6.036171972335701019e-01 -1.698271293922264391e-01
7.869740632714251616e-01 8.673982163634316178e-01 -9.348859469154391366e-01
4.401104576692938530e-01 4.180078618891514552e-01 -9.632976571545994737e-01
8.134633367012525929e-01 8.856994947573576527e-01 5.585559482954711719e-01
-2.868033230963544233e-01 8.918620985037984950e-01 5.528249962956490737e-01
-5.914952282698368036e-01 5.653613807187124474e-01 -6.122549413332711854e-01
7.556067512905516592e-01 -6.999154786170649900e-02 -6.224444782450080371e-01
-4.560232914441824520e-02 -7.309803115871421619e-01 -7.231717495945484409e-01
2.394359871040834808e-01 -3.722815809275081267e-01 1.946925215797754571e-01
1.548672499283749136e-02 -5.636544087344078774e-02 -7.262401273643463995e-01
-2.692113209506742932e-01 1.791143172378966975e-01 -5.177686875395348665e-01
-3.740216198423949034e-01 6.238000141055600328e-02 -8.634194051706062592e-03
4.632108461080478023e-01 -7.570187861999971846e-01 3.416534305066112331e-01
-1.399748053276466710e-02 -9.906639194401737347e-01 1.999092612020567528e-03
9.199304968959102213e-01 -1.003297025915967089e-01 -1.195071794633584400e-01
3.192088498103825001e-01 2.701362084860470802e-01 4.798332424883080538e-01
-3.833965553420641270e-01 -9.628972624281509907e-01 -5.486388429135689027e-01
-4.694963117930885388e-01 5.731849734313413380e-01 7.235509386105947183e-01
-7.585947303224748195e-01 6.391519156608981289e-01 -1.999495316817412327e-01
-3.491551026572736194e-01 7.776402760792558988e-01 -8.224292810478996962e-01
-6.946739243360787741e-01 -2.623722406706649468e-01 -1.417814715548315618e-01
-5.217356449246007832e-01 4.575751987710826030e-01 -6.379739623930031911e-01
-8.124823020067876156e-01 3.500755201681798323e-01 -9.387833821167801407e-01
9.685343946747654309e-02 -3.712375918371759176e-01 -4.652352913914243882e-01
8.501086018838291958e-01 -9.120369176889603358e-01 8.257815121184719498e-01
-4.945069804493637533e-01 -3.299480421101316785e-01 3.315957414411752069e-01
9.820648960930181692e-01 -9.956612189880525987e-01 -3.789673147955953392e-02
5.127846211047789593e-01 -4.024130113167935785e-01 8.961351289617514038e-01
8.641006621275021393e-01 -8.777266930219326246e-01 9.882845114496010552e-01
-8.544083580856199900e-01 -3.200061152150514565e-01 -6.336099678209140829e-02
-3.062282497258836389e-01 9.122449815630732095e-01 -4.051988738256859790e-01
5.340029342557065517e-01 -1.352180322928998868e-01 3.949252200172854721e-01
2.442195679440845729e-02 6.762541740019404335e-01 -7.158902727939875366e-01
9.453743839074372213e-01 8.902199666810944878e-01 -5.797680904269144619e-01
3.293351618205470621e-01 2.524842565408961237e-01 -2.901759446765991290e-01
-2.982793700323798647e-01 -1.214077757429652682e-01 5.131307087261396394e-01
5.214984577557272294e-01 -8.470875136182819398e-01 6.994844341408543720e-01
-7.478294313291106166e-01 1.922002315368685765e-01 -1.389006233150453795e-01
7.361654527831195116e-01 -1.797323719877720605e-01 2.445261435635994740e-01
3.008401150946316549e-01 5.623634975089398802e-01 -5.025724031862843777e-01
-1.901155599508721483e-01 1.306458235624030628e-01 -2.079092766200310860e-01
-4.815264414584964903e-01 2.630029315088682762e-01 2.614505946175613715e-01
-3.582434610991726553e-01 -1.709407901958467646e-01 -1.931687489867131013e-01
6.205871352772237559e-01 1.411527928818049060e-01 4.997318098865448643e-01
1.730071057325914541e-01 -6.900815911006044634e-02 3.434831960818146013e-01
3.109746135194551564e-01 1.614743775336441034e-01 8.654580467320363013e-01
-6.352361936721780955e-01 9.897457270500572557e-01 3.494862329216152919e-01
1.604140716184803417e-01 -2.637145829811926023e-01 -4.896106853095885114e-01
-4.899565450620492757e-01 -3.359600439922762471e-01 1.078047087693691924e-01
-5.440026288198419602e-01 -1.730908040471016221e-02 -1.440334399772122964e-01
-2.645778970851852541e-01 9.283548440599550533e-01 -5.517494921019041598e-01
-5.089955782936302908e-01 -6.828268320625813237e-01 -8.626966518793826033e-01
7.102814667796569781e-02 1.654270718548099539e-01 -7.489146314478223321e-01
3.710416624307278366e-01 -4.299461890157020849e-01 -1.484836682887724635e-01
1.215922293676585386e-01 1.611929769867789242e-01 1.306419183264379558e-01
-4.030645903041490258e-02 -2.872834752750507703e-01 4.557992478266255088e-01
8.245563304709325747e-01 -9.931112275957501567e-02 -7.079631345810966092e-01
4.776074412712689315e-02 1.788880883685873557e-01 9.097869830367122379e-01
-3.086681249345414879e-01 -8.180021831702438684e-01 4.091855537080756056e-02
9.241475144585125853e-03 2.423909659681973972e-01 -5.895265124582606264e-02
3.583247205870990215e-01 -2.232262362005451861e-01 4.913085769950611414e-01
9.630474669497234297e-01 2.026902161011024661e-01 2.663414183386827450e-01
-2.743039646287691591e-01 3.184229281421956936e-01 7.411904798130465599e-02
5.291832039869191068e-02 2.088191958965440465e-01 3.179827845306050782e-01
4.933138950090252828e-01 3.677835669283187614e-01 -5.481675601735942482e-01
-9.702918947148996276e-01 -6.951555106644050630e-01 -1.316241568424070252e-01
-1.835717170881687732e-01 2.086612570322540425e-02 -2.365322409484071631e-01
-2.179472619622159768e-01 -8.011303746909222978e-01 1.111064499476868001e-01
7.482559403389804631e-01 6.162762682629084887e-01 -1.355349859093825382e-02
-1.203343194031165075e-01 2.357729702783327441e-01 9.936253373008250289e-01
6.331090786621579314e-01 -3.624304380957258931e-01 -2.647927541165684406e-01
-9.365327698687707647e-01 8.270307473473702542e-01 4.900103832715285712e-01
-1.557228555986908680e-01 2.772885260133420293e-01 2.196729544182380867e-01
-9.933367694595219843e-01 -3.246163940069496934e-01 6.820747227568770832e-01
2.612510748295101548e-01 -1.655261367564965155e-02 -1.574974664956397541e-01
8.293844395697974603e-01 -4.387416171054998038e-01 -7.047524687904687113e-01
-9.975106638295493378e-01 7.324548065804784569e-01 2.843554821114445408e-02
6.096053131705720524e-02 1.710516984486341874e-01 -4.572036786174538125e-01
-1.951366643247468557e-01 -1.175512050430692693e-02 -1.461727044505034268e-01
-4.363081156034311348e-01 -5.080682388247509396e-01 -8.217933355011566299e-01
9.619454324496848896e-01 7.740388558336740443e-01 5.091542235287402907e-01
5.145085669584817945e-01 1.610183257734526252e-01 -2.628831244140692469e-01
9.846458313952169972e-01 -4.833962255600105506e-01 -5.964154118929732018e-01
5.770439568552771653e-02 -6.260557450210330055e-01 -6.996740337133357246e-02
-4.300089804897455070e-01 -4.080525861218090716e-02 6.726378770816041942e-03
-9.502466235120426985e-01 -3.575725897509684503e-01 2.343152428448371793e-01
4.884696749044768471e-01 1.230171860787226679e-01 -4.876955885948355274e-01
1.644631249374624848e-01 3.596508964103411338e-02 2.416111651822667183e-01
-3.016475529807278178e-01 -5.707076180279911926e-01 -7.919577114779878801e-01
-2.088708857897802473e-01 -8.551428883777317802e-01 1.961945545112285527e-02
-4.347289326593679060e-01 -4.440180570915876479e-01 -6.938809754613748382e-01
-6.057692571504026402e-01 -6.536895148119482579e-01 2.210285825868769649e-01
1.647318718831654594e-01 -2.503319187961651759e-01 3.759739845938940839e-01
9.284906307427175376e-01 -1.504719337337178386e-01 3.556961370907347764e-01
-2.570612050696871043e-01 3.725327104305455744e-02 4.868823781761993930e-01
1.553999142550046564e-01 -6.899363994498815267e-02 -2.718263835886177704e-01
-2.556588564675938979e-01 3.528241704916191268e-01 -8.219544902841604064e-03
-4.099799599295236852e-01 -4.662829954353308604e-01 -4.607454169835365487e-01
9.957202750721366735e-01 -4.019120931771932859e-01 1.934232980958268122e-01
1.825040379909075861e-01 5.033984096334079839e-01 -8.647154031480370762e-01
-2.967872335306521170e-01 -2.113257866394501194e-01 2.823757026804160630e-01
-7.385035234104607715e-01 7.484134479343532709e-01 -6.537234547724035671e-01
-3.040123117061998420e-02 -1.614999545605266540e-01 -1.091991783215706113e-01
-2.434669990583332999e-01 -2.733543931445356345e-01 -8.456626105068481003e-01
-3.636441041430220067e-01 -9.189453200940680966e-02 -8.427363156337409900e-02
6.063383015508155838e-01 -7.871993493695902400e-01 1.397773668746944420e-01
-5.165392682950430414e-01 -6.246847785262065189e-01 -5.639862726411248861e-01
-4.669382450618517200e-01 -3.918276361233907212e-01 -4.475347691719324672e-01
1.401995791918698164e-01 2.040482992489554837e-01 -6.542634626441488077e-01
-8.013701997915255726e-01 -2.315407235089751714e-01 -7.322072150792925671e-02
-8.654774435593813875e-01 6.153452177896260311e-01 -9.099932554865202139e-01
4.119469212885425446e-01 6.050014764797911893e-01 -4.250627095324832627e-01
5.886351699813311411e-01 1.724951138075861701e-01 2.746584560748128734e-01
4.421541029662033329e-01 -1.966539161774504552e-01 5.911617218545859309e-01
-4.161413321001785071e-01 5.412261489801121206e-01 -4.870841407478909701e-01
4.352361105260474372e-01 3.259007073125515519e-01 6.809114164164062899e-01
3.330003841616922811e-02 9.611549534220896474e-02 -3.534489712293776842e-01
9.276806041556070470e-01 9.676426661600522339e-01 8.419427515319466426e-01
-7.406673558835802362e-01 1.764810972770084196e-01 6.277215463939458395e-01
-4.830607185051762342e-01 -9.678359073979695415e-01 -1.641771595868193323e-01
7.103478419802825572e-01 3.914711542443676806e-01 -8.399676458909819399e-01
-2.538520423345731469e-01 1.497976522734094373e-01 4.202733033773248250e-01
5.723058152957939404e-01 6.721979661101763481e-01 4.407890408268364535e-01
-2.616338823720669171e-01 4.321142458350598070e-01 -9.139912569908785756e-01
1.939113633906999201e-01 -4.447312939817183591e-02 -3.653993613552672937e-01
-7.491825210152295300e-01 -4.235545017869714601e-01 6.846338302654648711e-01
6.026512366567139400e-01 -7.259681587958445315e-01 1.617525495426679338e-01
7.021469919435402440e-02 2.656858220985623409e-01 2.715569490681535303e-01
-1.209697354486471976e-01 3.205026449234606861e-02 4.586814528759531884e-01
-5.455217831074886670e-01 -6.663610960506854974e-01 9.687845196195161712e-01
1.641037506289834413e-01 -1.547866351063138246e-01 -1.752555335644534820e-02
8.065918038480074381e-01 5.090108973774288836e-01 -1.380357163715961732e-01
-5.999036307063528861e-01 -1.508739801293611793e-01 7.418621490038372901e-01
9.536598595899447028e-01 -8.400853867705700972e-01 -2.443087073202276915e-01
-7.482287438344040753e-01 5.487839465308582548e-02 6.421569199903354175e-01
3.034873560658240543e-01 -8.186643657261263862e-02 5.163484775410562833e-01
9.804234082046651144e-01 -5.709914197830064930e-01 -6.168702366261724634e-01
3.916796174354193055e-02 1.662621331201875330e-01 -9.966440704751577950e-01
-3.492572203753409599e-01 1.985820491024993806e-01 -8.788210968124614622e-03
5.878119630970687348e-01 7.336883603002811727e-01 7.828399659039431135e-01
6.280634556405025881e-01 8.132726501841084366e-01 -3.049022360065372084e-01
3.080972486154705536e-01 -3.621150711570015335e-01 -3.223291774999501591e-01
4.275258391948513759e-01 5.794430654514676204e-01 5.499229177407740643e-01
-6.511269347134384100e-01 5.807631953554935889e-01 -1.448597039137107245e-01
-7.950617230461652918e-01 -6.172444314084156725e-01 -2.017829634351759882e-01
3.569601433753532560e-01 -3.965825563463619141e-01 -1.960743080244568004e-01
-9.727392542916110107e-01 -1.983818346287168632e-01 -9.564367294377409401e-01
7.972944037473911338e-01 3.046150842948092685e-01 -4.329975349166763632e-01
-7.043884427889669508e-01 -1.746940829036499887e-01 8.667995332389308860e-01
-2.915562043133603232e-01 7.537266226421305282e-01 -1.034922034837708754e-01
-4.881267931267107563e-01 -7.945148755214487268e-01 8.511898011622416327e-01
1.847632952722029764e-01 -3.756935102457374387e-01 9.490800129687779751e-01
-3.457898649609100761e-01 -7.754084973949809667e-01 7.293222548603621735e-01
1.076051106116180933e-01 -9.001114881331769846e-01 -9.124673521449890856e-01
-8.371533852970934886e-01 6.016994451885239181e-01 -4.051217819852417044e-03
5.842813548750996899e-01 2.952922594532572664e-01 5.454909420828630839e-01
-1.055359904963859008e-01 5.057945722804849664e-01 -7.753169910677635279e-01
9.885594087650052542e-01 5.623027584998222528e-01 -7.851921236734009657e-01
9.454875680761759549e-01 -3.135170759168428023e-01 4.527302647093596200e-01
-4.637892415398065515e-01 1.049665377627090057e-01 6.087609711358694664e-01
-4.850212212219567193e-02 1.159034221957045696e-01 3.784002047145698100e-01
-2.325904628098269394e-02 2.568626821814766759e-01 2.583820497924805837e-01
7.126400115753493969e-01 -4.717469968415021753e-01 9.090714434047018067e-01
-6.661506230081218893e-01 9.563564529871700914e-01 4.196648647284435540e-01
2.121615875101716675e-01 -3.627908924322267165e-02 2.918079593962258009e-02
-6.667363637846305258e-01 -9.229356652139785178e-01 4.325417484215292596e-01
3.463452570232115613e-01 2.587413582731772910e-01 9.810340741615877214e-01
8.566537493427891503e-01 7.739167874184659235e-01 6.812169864851085332e-01
3.970036966281048074e-01 9.854124424784921343e-01 8.598082638299429092e-01
-8.137442202046228923e-01 9.182923848735725647e-01 -2.332445284011364084e-01
1.531945316168291105e-01 3.577147853953323124e-03 4.374541208328814879e-01
-2.263088929669447302e-01 3.347041521898031988e-04 -4.187831035618068132e-01
8.998281822375354677e-01 8.196482921653566178e-01 1.609320722004550230e-01
4.395056951446292826e-01 -7.815748561568726105e-01 9.801585543219455410e-01
-9.047649879940263817e-01 2.308673538944447032e-02 -1.044438840943691243e-01
-5.794200452372105792e-01 1.642718237277661364e-01 2.962936321485905022e-01
-5.048836794077409679e-02 -9.869592816449027084e-02 4.362253949530536801e-01
2.755352693379207740e-01 -6.109949270481646044e-01 7.822051430208385447e-01
-4.304641868158543550e-01 -3.303091684254134269e-02 -2.770857535714700906e-02
6.304623969155115359e-01 -6.542607379491091057e-01 -2.645668703863457427e-01
5.402402359869405979e-01 -2.635876731895684180e-02 -1.373584365107711758e-01
5.344453093768569696e-01 3.861392539404098767e-01 8.681882845981407915e-01
-8.883525990012589579e-01 -4.788773085243428623e-02 -1.578065120923788367e-01
-3.314384334001502785e-01 -3.773198615297678749e-01 -3.466422544342298018e-01
-2.623119004897078027e-02 3.075304275080596450e-01 -2.178938589134725434e-01
-5.294773083985048201e-01 -5.424657989310991552e-02 -7.645179762770508702e-01
-1.398869619924433816e-01 -9.863241734384323167e-02 1.343750902721785323e-01
-3.315183296265692969e-01 -5.876442277040078155e-01 1.856881966693935127e-01
1.726353267378560319e-01 3.286139203430960554e-01 -3.656008838936524175e-01
3.708103231618418705e-01 -9.744834158441953997e-01 -8.144455691747225501e-01
