-3.659244328370555577e-01 3.199191991828680415e-01 -2.867145605065046093e-02
3.085182929360811774e-02 2.122011341037803034e-01 1.431638102566003615e-02
-1.881352683621228539e-01 1.904178158480404892e-01 2.006750191840810382e-01
-3.313161677728329035e-01 4.866747483486389969e-01 -2.847154577610351844e-01
-2.085030774627819328e-01 -1.586893481886915702e-01 -1.464957444132043429e-01
1.971265114903907392e-02 2.096713765756416659e-02 -2.122046581793514408e-01
-7.022418482950074092e-02 1.870770540845126118e-01 1.161516519205290920e-01
-1.655702801479430053e-01 4.095253651628740776e-01 7.630286289520563786e-03
4.742902949510448551e-01 -2.287940775587063713e-01 1.501160090879139208e-01
3.924145170117784159e-02 5.122873668562144545e-01 -1.493425111388094750e-01
3.039065526587937938e-01 -5.213028626574774116e-02 2.660106699173664935e-01
-2.179180675870011630e-01 2.503615857035121905e-01 1.913668929922186235e-01
9.819599076353976996e-02 -2.484056755708642095e-01 2.804570806533187022e-01
2.432913399234297724e-01 -1.545592709507015994e-01 2.973565222156281385e-01
3.323873864317897220e-01 -1.678693175217699229e-01 2.340741066128159131e-01
-1.815550207861542087e-01 3.590557853178042436e-01 1.281365013339025860e-01
-2.221247888129004588e-01 -1.362931410414179589e-02 -1.765067177829950373e-01
-2.242821544561673930e-01 -3.019634429361519601e-01 -2.555532622012419638e-02
3.504454829287893119e-02 1.330291656103617937e-01 1.845829031573450740e-01
-1.144943618935049812e-01 2.050493144925358557e-01 -1.017650326437923858e-01
7.732488805740161258e-03 -1.300018941669474071e-01 2.399819946529412051e-01
-5.916036111875570130e-02 -2.938945885046420070e-01 -1.557833221694422954e-01
-5.885429214774415968e-02 1.145127334402813724e-01 1.739433542553345535e-01
4.827562755268688388e-01 -1.654905009167055296e-01 -4.343963668133331291e-02
-4.398542460597002629e-02 -1.371435594419388726e-02 2.323798218580270247e-01
3.883043452544785584e-02 -2.409262387779963210e-01 2.443689530418552414e-01
-1.299516221977662506e-02 1.739991349027088796e-01 -1.083540568373429214e-01
-2.209161998172201880e-01 -3.987338588785119264e-02 2.370279350093501547e-01
2.610798552679416407e-01 -3.313558314451542364e-01 -2.077719569364418484e-01
1.722020173491765060e-01 1.379866058365373516e-01 2.082788088785260394e-01
-2.667988205419826592e-02 6.735430882541021402e-02 2.102946138266812703e-01
5.604360777136815353e-01 -1.988092601929705161e-01 -7.046712297351952203e-03
4.237021171820239407e-01 1.455940902985689012e-02 -1.063023072017954818e-01
4.279973416910674566e-01 -3.281905401693872154e-02 -1.309566933532508304e-01
-9.978311265307759914e-02 -2.366376821843408085e-01 2.030333362116119034e-01
-2.357371990182247079e-01 3.316246627011603110e-01 -1.448951937809210277e-01
3.116315704723750524e-01 -2.367105036086143144e-01 2.500079248218248784e-01
-4.004242632558033255e-01 1.370435657374859117e-01 2.297095948577051738e-01
-4.071629690953357805e-01 2.277837045080974010e-01 -1.521964202144238630e-02
-1.772105951515055289e-01 -3.895831390709137976e-01 1.107790439308489402e-02
-9.665358834255555198e-02 4.650023434612580164e-01 -1.219119360897572835e-01
-4.162775433507518996e-01 1.447669556768061694e-01 1.497738434604757585e-01
1.563827850664647745e-01 -7.627940459963993003e-02 3.158233975166662155e-01
3.221259387955132114e-01 1.014460069288657951e-01 -1.450646294956333127e-01
9.364449541596114868e-02 3.113335112694723406e-02 2.584897520818784655e-01
-1.244726540428043593e-01 -3.191942172615571671e-01 2.199738656497478573e-01
-6.731511573786215508e-03 4.453311636565411291e-01 -1.539480366646787390e-01
4.676398961567859724e-01 -8.990619461317891914e-02 -3.538446415084348096e-02
-2.147624842825093111e-02 -3.804951872395603285e-01 2.585473602375968905e-01
5.252650861761657408e-01 -2.882170363034083360e-01 7.872600712009439339e-02
-2.316295737905870733e-01 3.639476103038317145e-01 -2.244961368017133752e-01
-1.997561653698780582e-01 3.374628525315054306e-01 1.571191984390811480e-01
-4.005860940212818688e-01 3.223796884856277023e-01 1.417242642208036973e-01
-2.280703123116573638e-01 2.718206525698673159e-01 1.822303267932343096e-01
2.923126390600586100e-01 3.817350609215769408e-02 2.454524280198319697e-01
-1.440215002525380150e-01 2.997103312229364436e-01 -3.470461839526726988e-03
-3.739467722112409520e-01 -5.062908394831428655e-02 -6.639109233790457809e-02
-1.324313103590227803e-01 4.733513190593855446e-01 -5.366965509372695342e-02
2.091056598350506113e-01 -1.417561133568241427e-01 3.079851832474953532e-01
5.251768411465950609e-02 5.223728018288087416e-01 -1.604402955266229780e-01
-2.918869556471225257e-01 2.142359087575889942e-01 2.832093546772833093e-01
-9.986827569775580393e-02 5.611488073205936344e-02 -1.904168070626439946e-01
5.535831685992042006e-01 -1.609643560281159291e-01 6.471665375982743607e-02
-3.345312234428436393e-01 -5.658611395565962821e-03 1.734058506970346247e-01
2.388003948553787670e-01 1.111382193805194873e-01 -1.772567455107049161e-01
9.216821479157791264e-02 -3.589977617679592781e-01 3.312108604464955586e-02
-2.152323797593647947e-01 -1.086633753183881418e-01 2.185194925172383174e-01
4.473493826108490001e-01 3.171767790599822057e-02 7.590899344107066016e-02
1.586787029763126189e-01 2.248756455026626466e-02 -2.403257457553260035e-01
1.488086614079799364e-01 -2.076291679024693249e-01 3.038836225990734219e-01
-1.271064040085772839e-01 -3.730633864836949698e-01 2.359500900483113839e-01
9.299537850783731741e-03 4.744774095151491622e-01 -1.706297380429595001e-01
3.550457262706777084e-02 -4.960425802945937074e-02 -2.977006493277492005e-01
-3.759243418398637848e-01 1.144211992888349572e-01 1.220459923698813676e-01
1.953347435931566956e-01 -8.062680409597866582e-02 -2.759080094485248935e-01
-2.540287424879897338e-01 -3.596356125757282918e-01 1.459426719032157760e-01
1.142990313283041570e-01 -3.137694114329342421e-01 2.561343326091223838e-01
3.593123975903770861e-01 1.660269652442667720e-01 -3.363398452825730467e-02
-2.434218012140792475e-01 -3.591899742157297348e-01 2.023758827493794266e-01
3.196190188936054444e-01 1.474745933440180512e-01 -1.202871694171450401e-01
3.211170466970126869e-01 -3.183289969939200326e-01 -1.529616981605856074e-01
-1.007726266774286450e-01 -1.464138358410467800e-01 2.170611821458566237e-01
-1.787172203335398446e-01 -3.829810740649433054e-01 2.083018764926475030e-01
1.941630514276998232e-01 -1.505957014870323296e-01 -2.732023461492510408e-01
-2.460009176415608456e-01 -3.975284693023745097e-03 2.257607278541495788e-01
1.768722987695973969e-02 -3.607231567696093100e-01 7.515609100032230594e-02
3.961740020027376130e-01 4.289061338413352464e-02 -1.336750118590463443e-01
2.881135128510482479e-01 1.627311690524250454e-01 -1.228620283080281428e-01
4.104779110743954074e-01 7.768461310863616909e-02 1.280052044118569210e-01
4.162474739812723756e-01 -2.388361999793709167e-01 1.504095048819692471e-01
-1.880276411210581866e-01 4.327795595371106141e-02 -1.818393179104495494e-01
-2.775265296311013041e-01 4.166736263130664808e-01 -3.610207499415987731e-01
2.419635387222267842e-01 -3.001925895341008843e-01 -2.242380593605909911e-01
-4.023852028282602911e-01 1.894727329132646909e-01 -2.806315104666935734e-02
4.395188118288975709e-02 1.556339899903395330e-01 1.703226136277965763e-01
5.076867029710980389e-02 -3.587018457791475434e-01 -2.466111351554065370e-02
3.515443790819866021e-01 1.148411030731094629e-01 1.680996042974684523e-01
4.466472955241497789e-01 -2.869962301343020883e-02 -9.876142364774267990e-02
4.885983140370109279e-01 -3.199735895389096418e-01 -2.397525129175338485e-02
4.634960587108589158e-01 -1.169034988960997723e-01 9.282864991092154572e-02
1.924998166236918939e-01 9.340751060948090934e-02 -1.839464438417433845e-01
2.709672975455593713e-01 1.045690833561718491e-01 2.019818974033768255e-01
-3.024909286662460506e-01 -1.848324312057944008e-01 4.171229754428393277e-03
-2.257428676444978022e-01 3.985439629875748846e-01 7.332224132160511387e-02
-2.426010082206159213e-01 3.995947521973842731e-01 8.488983133973362905e-02
2.133373198339159338e-01 2.254661904644484627e-01 1.166118095492174322e-01
1.784477882215673439e-01 2.274855778868918044e-01 -6.083215563466613796e-02
-2.484484763197010171e-01 -1.354755396363205300e-01 1.917863805278951783e-01
2.889557430384368519e-01 1.979524536334441864e-01 -7.164905862127973757e-02
-9.045189164344877297e-02 -1.416212098887674742e-01 -1.676367986596783710e-01
2.161313923650197977e-01 -1.704401385634052857e-01 -2.623406755217728148e-01
-3.015860345822704014e-01 2.385295893908816189e-01 -1.044712317097294119e-01
-1.357320312862056733e-01 -1.354785453667705641e-01 -1.587569827081750373e-01
-2.157258246917143768e-02 5.027417467701930653e-02 2.197381510532191440e-01
-5.121735139443395896e-02 -2.152322151894642821e-01 2.024197370025025144e-01
-2.376537566411650038e-01 3.929477038766012731e-01 -1.110948979513632154e-02
-2.307005818241136264e-01 3.757302166439033808e-01 -1.191668691792291401e-01
-1.919712749504107752e-01 -1.318436002588450062e-01 -1.661208924288501698e-01
-3.226597436355784776e-01 -1.196933998707117031e-01 -9.962678077015219014e-02
-1.676566329081673745e-01 -3.890906771636560846e-01 3.077262530508430641e-02
7.738815280118039458e-03 4.829124609892023745e-01 -1.211016495817354155e-01
-2.026878332255531157e-01 -3.901595059251680153e-01 -8.984683251531108694e-02
3.639528614656316607e-01 -7.258003711883810605e-02 -1.862602501246421738e-01
-2.503691199568079950e-01 3.821226185304146261e-01 -3.464961752421667485e-01
-5.415048445765482249e-02 -3.822410138571993299e-01 7.386781720126911477e-02
2.307112869457977056e-01 1.296009960210809664e-01 -1.703883644436074984e-01
-2.405879952443382708e-01 1.225358903530362198e-01 1.982342079882740138e-01
1.963544305544218105e-01 -3.108843057645220842e-01 -2.274547725051314084e-01
-1.305910909023893507e-01 -2.107405728543875756e-01 1.845174935664160298e-01
-2.404766835415842463e-01 2.193304019412989081e-01 2.366255511946084300e-01
-1.266510413734135698e-02 1.762914620042023428e-01 1.073127941605495628e-01
5.257439590961083820e-01 -2.276135649844610864e-01 -6.379326318491415626e-02
1.272501279869638902e-01 1.551746187462772764e-01 1.932376315884442863e-01
-6.367783613693872580e-02 3.689118349709217259e-01 -4.664790022398601632e-02
-1.655342823628925264e-01 3.083288681297893241e-01 9.541298382587176663e-02
4.585011305783692204e-01 -3.426536107869286585e-02 9.664079823556817606e-02
-1.064741462343122003e-01 -4.860965526859028357e-02 2.237416651573314874e-01
1.441571413946400315e-01 -3.553157611934985027e-01 -6.303180201748496969e-02
2.724978647283625155e-01 -8.848341438901226319e-02 2.901440994771716242e-01
-2.226608947903689351e-01 -3.228144300860007476e-01 1.228283126472237419e-01
-5.605034543817800224e-02 -3.821224929262387882e-01 2.139092517403768101e-01
3.202725657994933695e-01 1.181938490854443080e-01 1.794158248486378282e-01
-2.042836421798856494e-01 -3.814842384924478358e-01 -1.208301311718076587e-01
-2.945885954101224447e-01 -1.546430119845402240e-01 -8.427753498440818114e-02
-3.982648321534450475e-01 3.639221443541857948e-01 9.780298907385487350e-02
-2.223160184550468654e-01 -3.897148313904276185e-01 -3.951310704618621328e-02
1.655787707805853048e-01 -3.533629624512220069e-01 1.511204342473946860e-01
-8.553015859626997286e-02 -3.804598231887364873e-02 -1.981027999146611207e-01
1.287521015866697205e-01 -1.442548038545288791e-01 3.171868495421659717e-01
-3.791176363688473772e-01 3.628463557610452916e-01 1.336250446470758080e-01
-1.319717869818425593e-01 1.827514630337040147e-01 -1.266772470745980150e-01
-1.346211898257008710e-01 4.715822781155083465e-01 -7.730137049972771179e-02
-2.440174705324232862e-01 -3.374693203241478923e-01 1.560258791386117672e-01
3.409895281849615878e-01 -1.474116365627409775e-01 2.312343685810926142e-01
-1.653777477241915317e-01 6.780753984786280775e-03 2.276408315145658223e-01
-3.846028291160585311e-01 -6.372296075601538434e-02 1.351309730732374106e-02
3.586266062659308473e-01 -2.913660103184202432e-01 1.824483589089750113e-01
4.442253216784703973e-01 -8.724895231327992051e-02 1.357711872385962415e-01
7.831117899862441445e-02 1.761755465977497825e-02 -2.459132226890021478e-01
-5.154837166822286848e-02 -8.735914380358468512e-02 2.187877544441694799e-01
-2.460705313495925028e-01 5.075622622800620709e-01 -3.604482662526980463e-01
9.712078431316692462e-02 -2.319907099105229797e-01 2.875840838637186425e-01
1.304363496922534282e-01 2.355559168248606838e-01 2.875479597041491822e-02
-2.872947646186482795e-01 -5.371355968173872897e-02 -1.590411367299675305e-01
4.991842025560460083e-01 -3.135191583404615123e-01 7.354051318833138007e-02
-3.768898836647567863e-01 3.100391673881001120e-01 2.073346434339511657e-01
1.831299099689574494e-01 -3.646727496758565001e-01 -1.474495584123696190e-01
1.988644348360173453e-01 -3.439015643624782070e-01 -2.091381191971143638e-01
-2.278285486645548752e-01 -1.279793468302179438e-01 2.064549300406231525e-01
4.645308387302699571e-01 -3.191419857030986656e-02 5.513835387383728137e-02
4.912008172609378387e-01 -2.349275840981345509e-01 1.435605395135265139e-01
-2.123747890652586678e-01 -1.643165891233103193e-03 2.352020614608003324e-01
4.257196897918857359e-01 -3.374011196079144126e-01 -6.402836017187993334e-02
3.835832068516482063e-01 -3.646917358536241327e-01 8.298783089995775963e-02
9.653197139961330886e-02 1.963750608297587519e-02 -2.484488560041200056e-01
-5.113215443671393495e-02 -3.723745588289466557e-01 -1.612679343217583439e-01
4.590126666765047547e-01 -2.849425587346908484e-02 -6.574231883391194742e-02
-2.404245846810056375e-01 4.994920740097873457e-01 -4.461944840020800052e-01
1.883142122918883554e-01 -5.466225887215917650e-02 3.148416652353173140e-01
-3.462569087984253002e-01 -1.228950149529328684e-01 8.448210982281309511e-02
-1.678152234744643145e-01 3.603508508288799650e-02 2.193365908291020072e-01
4.656903894960340295e-01 -1.099366102296847891e-01 -4.191800094745667948e-02
-4.041317231653927533e-01 2.131029996755574307e-01 2.290558567026746983e-01
-2.669640527666007901e-01 3.480493267841344718e-01 -2.621387024376709007e-01
-1.586429542021923211e-01 -1.394670366760702995e-01 2.075136373125852918e-01
3.712122654889920548e-01 1.531587297713758733e-01 1.020915281208488179e-01
-1.147640427378014139e-01 -3.336295162573679196e-01 2.264857948887302741e-01
1.987790548222145015e-01 -3.197394291327212423e-01 2.429076034211303248e-01
-2.011589341379816653e-01 -3.383824817415466146e-01 8.168771878789324314e-02
3.022772845138795295e-01 7.655277348946429306e-02 -1.644757577047874231e-01
-9.088349895524563959e-02 -3.009627182627498954e-01 -1.412956165014424004e-01
6.281808411249860391e-02 1.508705106185168343e-01 1.799171937353727102e-01
-3.534075050347972313e-01 2.464182822973507159e-01 2.746636641358892184e-01
-3.208016353764049922e-01 -1.499614279786568027e-01 1.012643880778849870e-01
-3.060322950409637421e-01 4.434583922828231328e-01 -2.816292401936409395e-01
-7.498665656893732656e-02 -3.831011111276392267e-01 1.833769124466164968e-01
2.149399630899665181e-01 -2.453580157820144658e-01 2.870016629228653304e-01
3.106878389907807847e-01 -1.312710513128800272e-01 2.686472127225542073e-01
4.279576239017930661e-02 -1.186497314571136608e-01 -3.052725736037440463e-01
9.862793169967629114e-02 -2.719012445075948969e-01 -2.628748724004252302e-01
1.462355567770799725e-01 -9.561586524102384799e-02 3.192319544475110682e-01
-2.531908578188206138e-01 -1.863354388209566559e-01 1.252339801979330536e-01
-3.920655754942867777e-01 6.696815919971388364e-02 4.491295312123039229e-02
1.240716050203485576e-01 -3.657987413781185193e-01 -2.171731831898490728e-01
9.225615647042412215e-02 7.219100121463173370e-02 2.245411926212111942e-01
4.666526980410671266e-01 -2.619605085196669014e-01 1.533808340228547396e-01
-1.619251258227578233e-02 8.145761910283355611e-02 -1.909540127092653194e-01
8.418031144581109015e-02 -1.152303601313021952e-01 -3.020674695588475012e-01
-2.024968431519711676e-01 3.050087444315399687e-02 -1.798544335034802655e-01
2.119787484529007116e-01 -3.658411331223258012e-01 -8.511332752386444045e-02
1.586531598966961498e-01 1.511269542226293672e-01 2.001802117837695461e-01
4.711059157148434484e-01 -1.615256872569260649e-01 1.029041250516380124e-01
-4.023308121950655014e-01 -2.450386300529049100e-02 3.991824530242267521e-02
-2.759330173985951040e-01 8.163179501937234406e-03 -1.577716692654766995e-01
7.218333581016547762e-02 1.305560873235927788e-01 -1.654333704673078831e-01
-4.263107811105665279e-01 1.802648167496979370e-01 1.187573259982622198e-01
3.657271022805379523e-01 -1.943559500458645617e-02 2.249442399493661870e-01
-2.067027294819638317e-01 -3.890623535078426842e-01 3.977090650449509324e-03
-4.057046145090364292e-02 -3.865448028585889428e-01 8.753835394891867905e-02
3.765855687236061011e-01 8.192333649431615683e-03 -1.593326712034122128e-01
2.624973159986682125e-01 -3.840129018782623138e-01 -9.894032469751518066e-02
-1.229745376556263814e-01 2.497365601979127103e-01 3.414893108011904377e-02
3.588423819838925111e-01 -3.784086430091075925e-01 5.472756011860357983e-02
4.379664495647108136e-01 -1.221907763011201159e-01 -1.046296993047945434e-01
-2.288772156892023291e-01 -1.533304342428936096e-01 -1.411172103063625671e-01
3.722480076872978771e-01 -5.718611051485780750e-02 -1.818836334700021096e-01
4.965255193820156121e-03 -5.114971442548271741e-03 -2.416731725035033140e-01
-2.282733618096415840e-01 4.135435021822442270e-01 -1.753452401282459550e-01
-2.326364722910610749e-02 -3.796097310494814803e-01 8.852909846416015527e-02
3.460211584735960189e-02 8.688099145960248570e-02 -1.956304268371184540e-01
3.986136506125396162e-01 -1.861440226403128229e-01 1.959001075974853567e-01
-3.173177676220755861e-01 3.288453380123408376e-01 2.287305986549532377e-01
2.176191537312655577e-01 -2.412129250608913422e-01 -2.517411805535103575e-01
3.215806672843569691e-01 1.505915040216392053e-02 2.440274725140347267e-01
1.574396925885771792e-01 1.455197786323323139e-01 -1.593565194706785815e-01
-1.422916294717574970e-01 8.034163602742369625e-02 -1.786584465202412653e-01
3.264647433025175682e-01 1.469532140111944607e-01 1.581042462998493714e-01
2.139380513380884363e-01 -1.875994916793748413e-01 -2.630755193000603454e-01
-4.512990886909144100e-02 -3.880726470296866903e-01 2.345666116434326140e-02
-2.748185978276847519e-01 -1.329053861227289524e-01 -1.315889538378519630e-01
-2.521831750186633858e-01 -3.786080123590459534e-01 1.590271981180305660e-01
2.150975136477413507e-01 -2.107314179835886314e-01 -2.537811574763769173e-01
5.203094229577461677e-02 -3.565107559512670221e-01 -1.056490409311037493e-01
-2.898659096660771706e-01 2.758275133156323777e-02 -1.474704062505674540e-01
4.352225056527063152e-01 6.894884634702264092e-02 5.331780186644324848e-02
3.804368440904343229e-01 -7.766021787350403660e-02 -1.784063609967112829e-01
2.982772356616554266e-01 5.673464678708364795e-02 2.333508026022109438e-01
1.578905181671466651e-01 2.184954464076009628e-01 -7.929149810047628200e-02
-1.018320840651320003e-01 -3.876306643650879735e-01 -1.105870228039663450e-01
-1.951251617126811000e-01 3.984726688360906710e-01 1.811966868428110597e-02
-4.688775680657020911e-02 2.092337930911730426e-01 5.475156976041992141e-02
1.113603585355948666e-01 4.696780027899376542e-01 -1.897352953121332064e-01
-1.987015931241125910e-01 3.959391595546671860e-01 3.542086146630842036e-02
-2.740134869868188217e-01 -3.524663540503100156e-01 -6.134266870673645011e-02
2.440889010888569466e-02 -3.875728468673858562e-03 2.611419450387726382e-01
-2.134395571280657267e-01 3.976856617123809556e-01 1.113711518486057081e-02
-4.565902342765474492e-02 -2.950829993957163611e-01 -1.818619437892457780e-01
4.833044348890577213e-01 -2.862054000390027442e-01 -7.643395691851476159e-02
4.941742595033535856e-01 -1.466092823863776595e-01 -2.152050038226524867e-02
4.073698151203812290e-01 9.371697150199695403e-02 1.191730726638000060e-01
-7.422474114421187541e-02 5.151306045369923314e-01 -7.806270458655006905e-02
5.223583974794698825e-01 -2.477183085399403406e-01 -6.076525476855461350e-02
2.334461875533648881e-02 -3.878057722618853953e-01 -1.946584151421362763e-01
1.490183349444375305e-01 2.357423083453769885e-01 6.717149256797153023e-02
-3.786565510262492745e-02 4.942350925146116181e-01 -7.443051687271437511e-02
-1.368024905208213016e-01 2.151343105710642745e-01 -8.137208462219056027e-02
3.012910768295619102e-01 -3.177434372550730357e-01 -1.927290759985775814e-01
-2.763829069133663663e-01 1.818644808937907864e-01 2.886351331073019333e-01
4.613610811921663862e-02 -2.202516807389198472e-01 2.567040031948878420e-01
1.901740170803315755e-01 -2.109478538026543504e-01 -2.665211069710186620e-01
-2.636928350461035797e-01 -1.391560515683445409e-01 1.822198442744788205e-01
-4.556973680645935026e-02 -1.621180758174885495e-01 2.108507170819258203e-01
-3.915694255801743795e-01 -4.492405750095146422e-02 7.843805148826285545e-02
-3.479841200122305023e-01 1.911124385283375082e-01 -8.625404777993392336e-02
-7.981282482883336749e-02 4.572058834345028577e-01 -1.337779900789183574e-01
4.307902155967129332e-01 -3.310041902876232900e-01 1.197745273045341119e-01
-3.534766114286268524e-01 7.631901790573203392e-02 1.317287725673220722e-01
-3.431609704951267548e-02 4.665267831300349277e-01 -1.565996399757025592e-01
2.410405855408905562e-01 1.612926302893338548e-01 1.806088794352768423e-01
-2.508789185719320081e-01 4.512260244188922576e-01 -1.841132052048862766e-01
1.143746981160739806e-01 5.242105384435369331e-01 -2.228701041761541324e-01
-2.776340656413746055e-01 4.741251151318170987e-01 -2.022524231764632752e-01
-2.374183845685508554e-01 -1.642425174703908697e-01 -1.223708659048777236e-01
2.613630655974056791e-02 4.593239662697325976e-01 -1.653992286181006355e-01
3.368493200177702374e-01 -3.717066725715630904e-01 1.001514284061456872e-01
4.132539155421510735e-01 -1.938529791843198180e-01 1.776317794816313356e-01
2.482229721336793871e-01 1.277290156921885578e-01 -1.646366283650979312e-01
-2.195799280478965276e-01 -1.829943839222313295e-01 1.560681016597210424e-01
-2.661383842620833051e-01 2.618827113963517750e-01 2.465803072297786391e-01
8.677748440047632073e-02 -3.035156393430256117e-01 -2.448056643095677942e-01
-1.798888684035792052e-01 -4.136080930032542263e-02 -1.941854274330696850e-01
-1.426072400233527604e-01 3.176192636005016334e-01 -7.721411591215908768e-03
-3.560692318606290541e-01 3.384911641685435235e-01 -4.282346414752603858e-02
-1.464051617476045675e-01 2.471896560898237671e-01 -5.822682557641038759e-02
2.150629783806088519e-02 1.803324241316693055e-01 -1.006586421021099798e-01
2.227896535966891398e-02 -3.574890254059083228e-01 1.402722198480216564e-01
-4.069110059856704820e-01 1.582799685518848365e-01 -2.298187438586185224e-02
-2.840516049057540404e-01 3.527205413011267332e-01 2.044028082234276011e-01
7.566848203796844308e-02 7.206352994093578879e-02 -1.985594287524816703e-01
-3.064979491416148782e-01 7.071250593991718070e-02 1.818678900164940326e-01
1.331260049387535949e-01 -3.583395972776062255e-01 3.891067103752272882e-02
-9.102196758745415006e-02 -3.593247317977491528e-01 2.233524796060215867e-01
-2.099715293873019306e-01 -2.199826752579576439e-01 -4.659284407334389477e-02
-3.604612340379780289e-01 3.863147409052555270e-01 3.039876345264009086e-02
-4.022559959500369708e-01 -2.352531350100564578e-03 4.988763239257781867e-02
3.664614174440928851e-01 -3.262879112716621233e-01 -8.870190209173550722e-02
-3.060716433790808821e-01 2.506590817966668494e-01 2.783662710055396783e-01
4.651352527532683356e-01 -1.877945495806565557e-01 1.260543227486227436e-01
-3.731216199022848734e-01 -6.489124028610049333e-02 -5.551804301004134579e-02
-3.560650526167076779e-01 2.829477458736678885e-01 2.496034288785612953e-01
-3.254350761063115050e-01 -7.610091150216881373e-02 -1.217346176436731875e-01
-1.640497679449810231e-01 -2.328822393648401767e-01 -1.074791979954602683e-01
-2.104232555856432318e-01 1.493829354317344205e-02 -1.797238111493620338e-01
5.527956278498706855e-01 -1.790393291836556711e-01 -1.756082259280607530e-02
1.871687286648557602e-01 -5.781474794964515385e-02 -2.766396504638587994e-01
-1.918313321635368995e-01 -2.654791683571907646e-01 -5.575264993706090244e-02
-2.598738221888344246e-01 4.243870314176454439e-01 -1.230864920319145739e-01
3.400200100098597911e-02 3.389905929789238659e-02 2.319419472018252604e-01
1.907474091276684103e-01 1.923420690407651457e-01 -1.159726563462797622e-01
-1.236646106861595540e-01 -1.473428130824522841e-01 2.121865880983758723e-01
3.184273351405585428e-01 -3.765217185482659934e-01 5.554625767993964791e-02
-2.277522598476343640e-01 5.409730977452303913e-02 2.145648888443166258e-01
1.172325597377274764e-01 -3.580725012998531298e-01 7.645559518516475972e-02
1.727279807199803563e-01 -4.704612182482312277e-02 -2.811142381926683975e-01
-1.592883240616434493e-01 7.621568820560600810e-03 -1.958901356061703292e-01
-3.609487364574758272e-01 2.111680279524709436e-01 2.761190966439223127e-01
-5.704929261289771319e-02 -3.882779001794098850e-01 -2.092261460208641455e-02
-2.274314605284037949e-01 4.538095693789674367e-01 -3.204486999403068359e-01
-3.788100265003108702e-01 3.527641988898335690e-01 1.518080222248067712e-01
6.402890811096839663e-02 2.207950023388487171e-01 3.938598775129055485e-02
-2.685915875476465042e-01 -3.612583057330366332e-01 1.833465424939990929e-02
2.935389773250884557e-02 4.828433621768301043e-01 -1.330426392287083204e-01
1.657417378576747924e-01 8.479063088814151050e-02 -1.935868057359959871e-01
2.610699207531895771e-01 5.629881940780473437e-02 2.446746363176221517e-01
-2.885152499797870029e-01 4.470391186227049563e-01 -3.321106676832030202e-01
8.051521342986249496e-02 2.243112557108767058e-01 5.524876117869195746e-02
6.525726017626186370e-02 1.920197571425138749e-01 -9.045257639843576336e-02
2.105452635380913318e-01 2.584695651008993289e-02 2.663396806649161452e-01
-8.005917444895221946e-02 3.768326841710233355e-01 -1.013523493285481691e-01
-1.122309187452373569e-01 -1.662182232475348798e-01 2.085737595613336437e-01
-1.997801716076405554e-01 -3.594700074497305525e-02 2.331945318279379231e-01
-2.254020698069807982e-01 3.757289939424000025e-01 -1.708874877071916432e-01
-3.485647728889932351e-01 2.670974330602564617e-01 2.660509566710105855e-01
-3.669736947563455587e-01 1.082297955990588756e-01 1.590960009187561974e-01
3.974022073379104847e-01 9.111173599992120065e-02 1.354943493704676705e-01
3.304367677843884077e-01 -8.527698779307674171e-02 2.608080774487049336e-01
-2.955487794754508291e-01 4.083959916199848550e-01 -2.683698919963836138e-01
-1.356707920641100351e-01 3.551169162120733080e-01 1.095241166710877317e-02
3.780411000431901924e-01 -3.614615227617776760e-01 -5.312208949159538673e-02
-4.379931937936914349e-02 5.146918272964626784e-01 -6.480959636228920961e-02
-2.141063211532294452e-01 2.775278002860925852e-01 1.692623534420181486e-01
-7.999325624605488350e-02 -1.334196813719590868e-01 2.169873074277193503e-01
1.015712410416225453e-01 -3.737794469112968310e-01 2.663600059621736849e-01
4.676666763218319534e-01 -3.234497097628388218e-01 9.910692968094950150e-02
4.142073190996044540e-01 1.086559551742903862e-01 1.468451070128069455e-02
3.039013950727304514e-01 -3.991058181810927530e-02 -2.209141482483449603e-01
-1.575242851923303322e-01 -1.243962085437463200e-01 2.196142576903760135e-01
-8.472177328974309085e-02 -4.465170755669822800e-02 2.231841184646077558e-01
-2.110956226458923779e-01 1.068622229044855487e-01 1.849147441490747723e-01
-2.405345757328210543e-01 -3.479950947983572185e-01 1.198901017524648116e-01
1.219981855307005203e-01 1.789576745487499732e-01 -1.286954464196333470e-01
6.572971345835319779e-02 7.623394197137944861e-02 2.182695186891666084e-01
-2.245824925211636347e-01 4.301374935827746437e-01 -2.911378176764261028e-01
-4.218769581741659835e-01 2.214450333930927106e-01 1.243490160719156190e-01
-3.167751115505005322e-01 2.999042340907243087e-01 2.524897207455395476e-01
3.382537787255840978e-01 -1.154979018243621480e-01 2.493757342934008192e-01
-3.602035257961672121e-01 3.072275159032804570e-01 -4.319167421200477419e-02
-2.579176604682094087e-01 4.792433997748366536e-01 -4.206952334111275227e-01
9.078851950389993375e-02 -3.564019695917510777e-01 -1.526318650848181580e-01
-2.871454904721028045e-01 3.224268237181784347e-01 -1.461750820071759382e-01
8.039011273240011246e-02 4.631181091382421400e-01 -1.387402564603454347e-01
4.045322462292039734e-01 -1.525278464769914688e-01 -1.482231065895542599e-01
2.117206529969185846e-01 -3.581922915716539979e-01 -1.230487861821908668e-01
-3.420858410979381592e-01 -1.046857748491019091e-01 1.351182518809392330e-01
6.880562163425760214e-02 -3.882720694931620642e-01 -2.071104570590565352e-01
3.254982633935186304e-02 5.772242227816420934e-01 -1.778759450375443640e-01
1.911672606119206308e-01 -2.444533098084229195e-01 -2.567981704260391407e-01
1.074428680576253459e-01 -1.929429079617198672e-01 -2.860086421997573014e-01
6.591646521734328967e-02 -2.777358197466905931e-01 -2.558904093436774052e-01
-3.093491765360230072e-01 3.960067724145379664e-01 1.013494243285756879e-01
2.623863863603991264e-01 3.637715943271543906e-02 2.529641313618194443e-01
2.527596220032167773e-01 -3.483117688875383422e-01 2.339429897244610923e-01
2.063635653964450978e-01 1.712226424286284743e-01 1.777905373560985103e-01
4.289504382400905480e-01 -1.397207917092593843e-03 -1.103810616678682355e-01
-2.282151245811155360e-01 5.355376031271377180e-01 -4.311904744456097616e-01
-1.361373016373038092e-02 -2.767937999322490628e-01 -1.944961299421521794e-01
-2.639619618686728231e-01 4.007752859216224817e-01 7.305842569430667788e-02
4.488486610282301781e-01 -2.819890097340650437e-01 -9.497751581164359802e-02
4.484328086123466339e-01 -2.489510426693601619e-01 -9.433823118204770486e-02
-2.370375065546064808e-01 -2.243331753491242531e-01 2.625866034604653135e-02
-1.188150025064280135e-01 -2.375887995849193246e-01 -1.285118198823074764e-01
-2.487536991060415037e-01 -3.111741615351206747e-01 -1.690603672883326039e-02
3.868265982918888679e-01 1.457873606637011543e-01 6.988249249839158239e-03
4.062490134412448661e-01 -1.735390213543441251e-01 -1.468070308479728914e-01
1.519813123811345756e-01 -3.822084060677621853e-01 2.284626132782396346e-01
2.446841513528166256e-01 2.030873640614810072e-01 1.445439077209350887e-01
4.531188022748168787e-01 3.536505791411534427e-02 1.787166123455224617e-02
3.084492458440880602e-01 -3.572621051132720549e-01 -1.033671127167240522e-01
-1.807336458105277543e-01 -3.009292784979313851e-01 2.102857380038754276e-01
-8.177642814419425199e-02 2.131295155263406571e-01 -6.731694295272147577e-02
1.734436308142008054e-01 -2.140728267228320103e-01 -2.699436715487170124e-01
2.166409986782310004e-01 -4.778134409207761280e-02 3.087759172653980477e-01
1.491741427099486095e-01 3.999395456339660537e-02 2.537741475888767306e-01
3.146687729334571304e-01 -2.628287523697174777e-01 2.323508561730270594e-01
5.485883239155532609e-02 -3.594201675152874920e-01 6.252446326887811656e-02
3.502433541993994481e-01 -3.121760128374179155e-01 1.808630816404397101e-01
3.852593650870111408e-01 -2.472476428394812797e-01 -1.359533820373590718e-01
-3.280634297155365919e-01 1.175935212490557269e-02 -1.257195330967239288e-01
-1.494159965427361431e-02 -3.859096136468761484e-01 -2.439824055926234636e-01
2.004098598315549179e-03 -3.587385915767947742e-01 -4.845462000548420023e-02
-2.850040208274999265e-01 -9.270841210216722306e-02 1.983902744479883740e-01
4.326664612256802545e-01 6.685230243887277379e-02 7.864536716206374511e-02
-2.572111690698317132e-01 4.839442235936325387e-02 -1.556586138486692750e-01
1.980244922695795773e-01 9.371932030497659438e-03 2.889959674854607474e-01
2.332852098528608031e-01 -1.932747027127540984e-01 2.985437946696538059e-01
-2.307514839911588567e-01 1.789767314450018409e-01 2.389385508947007020e-01
2.412707731810861955e-01 -3.856573950040359522e-01 -4.910063595919809953e-02
5.977859467077205335e-02 -3.717949732601562030e-01 -1.715413699354874921e-01
-2.257312774040435288e-01 -3.294814903317383470e-01 2.144052332189968213e-01
6.451006648978407920e-04 -2.821598061442771588e-01 2.340600217447154630e-01
-7.981373347949419217e-02 3.861054605234073289e-01 -2.315806205217396316e-02
-2.592070426658310556e-01 2.946762085645874274e-01 -1.051419930718870965e-01
-1.802918347967083224e-01 4.223967414573799317e-01 -1.257621688981515676e-02
-3.865693390181219047e-01 2.612069061999287012e-01 2.326091770821274163e-01
-1.543479726948200903e-01 -3.189003911941978853e-01 2.280086907634318316e-01
3.941105439020687329e-01 9.171230698360641198e-02 -9.977409533431375044e-02
-7.993700335255210510e-02 -2.706570194461013767e-02 2.235797611450006661e-01
2.869808479724832995e-01 -2.735084085391812359e-01 2.414273506308122763e-01
1.312355143631179499e-01 -1.768750541328774628e-01 3.064111851773618778e-01
-8.729693367804830517e-02 2.173848453522242152e-01 4.248412515969025860e-02
3.153183782292890980e-01 -1.542575873423684407e-01 2.581478140724005055e-01
4.389985809206052858e-01 -1.762567275155009772e-01 -9.065394976868879073e-02
-4.643521994599259656e-02 3.086307337097116132e-02 2.235920356532014319e-01
2.365224735494838304e-01 -1.130231720408350904e-01 -2.649002070105991868e-01
1.778525073444822968e-01 -3.672014435073844840e-01 -3.688245602538085810e-02
4.301928545294842476e-01 8.417064934035842216e-02 2.497322382523628828e-02
-1.333922259541478750e-01 -3.844799716498641384e-01 -1.544284082897537935e-01
-1.041178363482929969e-01 1.110908385777697183e-01 1.830620092072699767e-01
-1.363045114407219482e-01 6.396744505092458177e-02 2.076247834714063656e-01
4.584562766550900198e-02 -3.455157357742879576e-01 -2.372943888784990463e-01
-2.816937904787437108e-01 -3.862749808262012641e-01 -5.224428864569893860e-02
-1.294356757925904655e-01 2.599767661494558624e-01 4.553883673921112207e-02
4.705689213817403904e-01 -6.614015494408313767e-02 1.152862441616615483e-02
2.577578309361240327e-01 -1.208370942710195600e-01 -2.504903552449098680e-01
-4.274955665675093108e-01 2.007905993994792138e-01 2.941881930275986115e-02
-4.173162809187985212e-01 1.431124651064244746e-01 1.004265505411431614e-01
8.877538896711451022e-02 4.868749007625807756e-01 -2.080732211850876145e-01
-7.446743144424619598e-02 4.963981543158901832e-01 -4.978490877335857434e-02
-3.835058804700067769e-01 8.573875963387472821e-02 4.818162670653643176e-02
3.493536787758815820e-01 -3.624392143674274314e-01 1.119606516023008147e-01
-3.880110113848894149e-01 1.125237659100394860e-01 8.125385399880347137e-02
-3.584542673178798405e-02 -3.877809459903823752e-01 5.793581079050977301e-02
-3.260886153425704426e-01 4.183013617882297419e-01 -2.011103242219779985e-01
-1.636570012900465804e-02 -2.972178472618548506e-01 -2.138269031087021710e-01
5.388037968464167715e-01 -2.804274775257977748e-01 4.811572923741705421e-02
-2.803200436463140766e-01 3.152124438851622301e-01 -1.282905525074466702e-01
-1.911342436835864189e-01 3.287792588540521255e-01 -6.498742846844625387e-02
-3.644196786747418981e-01 4.946487877314273418e-02 -7.400894092072080044e-02
-1.525786221530145426e-01 -2.159349594898717917e-01 -1.216290295867674121e-01
-3.894878668193336724e-01 1.184772337103138784e-01 2.164279807726086635e-01
-4.196141531045559092e-01 1.639344131967988838e-01 1.244616548271079703e-01
-7.291890562224276340e-02 7.421708639553944997e-02 1.946453212201885163e-01
4.892831810038632961e-02 1.419612430868052722e-01 -1.543440794506938107e-01
-9.077727034692617547e-02 4.858109658541984732e-01 -1.186844966191203943e-01
-3.096713377443274240e-01 -1.658289256045575311e-01 -4.010999858999150791e-02
4.098429214209232119e-01 -1.906562431052980511e-01 -1.350551634545948954e-01
7.317622169660628617e-02 4.757019277271713475e-01 -1.482455284335426615e-01
-1.510981001617485719e-01 3.778402980877543227e-01 2.041247835856827356e-02
-1.518636269843165465e-01 -3.873747907400986179e-01 -1.366301162537738589e-01
4.264755257003050581e-01 -1.501542734904369458e-02 -1.231408454291870458e-01
3.083248789432818660e-01 1.744452143684004086e-01 -9.400538158202823014e-02
2.495340339958122822e-02 -3.809180965085362525e-01 2.305853029589509107e-01
-3.054840059216542003e-01 3.878017145163764612e-01 -1.891245532239462235e-01
-3.641234610436308583e-01 2.285688673416433614e-01 -7.655769310824400709e-02
-1.553288860976573538e-01 3.128811860364240083e-01 -4.751569412040410056e-02
5.344139883100045285e-01 -2.056495843939093460e-01 -4.836266696678293009e-02
5.647298240768915401e-01 -1.939550243428447285e-01 4.954859592856009076e-02
-2.000961703993432428e-01 -3.328393091574748386e-01 5.737381004041275379e-02
-1.589688465227035719e-01 3.322673882831485015e-01 4.825009564265420048e-02
1.168472501437181621e-02 4.671140809404381034e-03 -2.257480118256189050e-01
2.876406748148674919e-01 -2.685238401821474774e-01 -2.261149018138086941e-01
2.807875486854828351e-01 -1.867416836962433879e-01 -2.421782937080544373e-01
9.902276606576732032e-02 2.152872133228946050e-01 1.128561989558817258e-01
1.100933422181795129e-01 5.152547838134317049e-01 -2.055850595872097120e-01
2.950221970406791128e-01 1.318081766785945408e-01 -1.459930828794677726e-01
-2.927777182865863304e-01 2.600251646180840037e-01 -1.038054912370052207e-01
3.344206808609808540e-02 1.042170550876964363e-01 -1.844207174758224210e-01
2.283561072914237211e-01 -3.695637230301646037e-01 -1.225677431440377330e-01
2.491631594894177792e-01 -3.847126833780790678e-01 -1.390967134579383369e-01
-2.617924036347893391e-01 1.189012246100255021e-01 -1.248616371572101036e-01
1.466978663029305623e-02 2.079463462139049257e-01 2.414977599692049240e-02
1.473459985418365814e-01 -3.559174230982176113e-01 -3.890847624934537508e-02
3.563475207163191438e-02 -1.996118345493516077e-01 2.449092539416074521e-01
2.526078902947003768e-01 9.498808115164525390e-02 2.054460069889443019e-01
-3.976383113563660560e-02 -3.844561173322094128e-01 1.068054312150461260e-01
4.259191312813609964e-01 -1.454107720064299891e-01 -1.254346069256658258e-01
-4.012906054591041105e-01 2.896964491568139177e-01 1.306571779325674254e-01
6.773603852067849873e-02 -1.472088109647330390e-01 -3.024135326025531034e-01
1.289744599125485225e-01 -1.596762418870321110e-01 -2.863489298507738146e-01
-3.321380665727192150e-01 1.221130677581989954e-02 1.747705029539615151e-01
3.599771455085803429e-01 4.240599655783772182e-02 -1.602726668555370659e-01
2.257954400323916311e-01 -1.139279733959795288e-01 3.070897040325974436e-01
-3.654998754813097439e-01 -8.539069935967812108e-02 1.093479949538193052e-01
-1.049145907666994282e-01 7.486997050316587798e-02 -1.861115523681160511e-01
-1.021267641140750915e-01 -2.936431776224114609e-02 -1.968632447277262332e-01
-9.513169745914165643e-02 -3.153040620113796155e-01 -1.739700003519596694e-01
1.119250394745113508e-01 1.211647481209745247e-01 2.126242154943337737e-01
3.911587603417306935e-01 -3.520738590753840214e-01 -6.181690443366329168e-02
2.944738550304764058e-01 -1.208528931222146441e-01 -2.345154913451324707e-01
-1.687265867166494182e-01 -7.172426045771175540e-02 -1.927348493602311086e-01
2.708580102257566180e-01 6.797871840364996809e-02 -1.807365037295100008e-01
1.005656424538819704e-01 7.477132609833014865e-03 -2.672536985923481545e-01
-3.120860207596260483e-01 3.874080530596428762e-01 -1.679404912606518030e-01
-1.687797346103029061e-01 -1.994323457666226651e-01 -1.151988724651214213e-01
3.236318908753932355e-01 -3.231931561676807396e-01 2.063137054826469363e-01
6.723176125488761201e-02 -3.581391481358331408e-01 -2.863536696424396483e-02
-1.150750887556687418e-01 2.316887661571575274e-01 6.210328030886744233e-02
7.443759607033866021e-02 -3.444521670013518388e-01 2.779447804033767788e-01
3.501156977841980988e-01 5.282018875304633765e-03 2.289574167374095748e-01
2.863828116173031471e-02 6.203474755035853772e-03 -2.428369054942750571e-01
-5.181972799240081723e-02 -2.872346162036887307e-01 -1.404499069503884201e-01
-3.978697158388694866e-01 3.219835817845948522e-01 1.986845454181603715e-02
3.736310166763772700e-01 9.121045125477908466e-02 1.647976203149550123e-01
-2.191449035640618548e-01 -3.902152920821714277e-01 -8.998022748977177465e-02
1.256550021208485968e-01 6.422555791883671761e-02 -2.025812846723948901e-01
5.191953044884977525e-02 -3.578293947292550126e-01 -6.441529894553366109e-02
9.144935374059665056e-02 5.286534087874689147e-02 2.270925829905708626e-01
-2.225972419180460571e-01 4.279589708606141851e-01 -2.659488908197075174e-01
-3.033163439862121002e-01 1.592774614834427671e-01 2.867154071186006070e-01
2.946017512749397188e-02 4.075698414358197574e-01 -9.209374025275801623e-02
2.366649359218897242e-01 -1.018941750059118856e-01 3.018540107536420436e-01
-2.241412066450994001e-01 4.627012288080539770e-01 -4.063946987416593437e-01
-4.449953032596818542e-02 -2.901337813940777499e-01 -1.635847753182846087e-01
-1.212013342986999198e-02 4.109249960844786331e-01 -5.084921761180462296e-02
4.225568886075093400e-01 -1.271766151083030261e-01 -1.260369412954279733e-01
4.633349255146776979e-01 -9.791747150354442042e-02 9.630293345313251097e-02
-2.585268813494895346e-01 3.944969020120311365e-01 -8.864686394982876361e-03
-1.247611893752748891e-01 -1.968966766002855362e-01 1.919915386414031144e-01
1.547664414513539866e-01 -3.610083142318023519e-01 4.821126379623170977e-02
-3.820286144671290463e-01 1.170857864416404437e-01 -2.460163266005217786e-02
-5.370455578693717619e-02 -3.582889553742238942e-01 -1.078344409074393773e-01
2.081297240064795828e-01 -3.836566960123886094e-01 -1.872158323105355127e-02
-5.379962670605471092e-02 4.248953742825206659e-01 -4.422857567017615676e-02
-3.115217017783652453e-01 -7.854898705222664035e-02 1.866357177854504334e-01
3.854857339379246794e-01 -3.154280312515097551e-01 1.388269049451791304e-01
3.810220061092204902e-01 -2.066134722568702675e-01 2.051742538216523581e-01
3.025156059726282765e-01 4.601023415203880917e-03 2.509561920715520089e-01
-3.234966612765943772e-01 1.707631416402080882e-01 -9.828321015049421017e-02
-2.426153136435675872e-01 3.864807536126079190e-01 1.470886466866997699e-01
-3.634399157221872012e-01 1.397500591453809393e-01 2.553309458142301591e-01
-9.234881476822387469e-02 -7.548474225547671668e-02 -1.874260529618354820e-01
-3.630087437867804967e-01 -2.508333114073560410e-02 1.411494059802304302e-01
2.037824353469552263e-01 -2.873304011690200888e-01 -2.408102623198111469e-01
-2.251045149538780654e-01 -1.103070117331534233e-01 -1.699446615727982779e-01
2.514594237306870261e-01 1.899319369408303537e-01 1.569353244311163798e-01
-1.635800056057760965e-01 5.471180130898037342e-02 2.117330499847746850e-01
5.633910243888180513e-01 -2.229023562941319925e-01 1.597383604274932659e-02
-4.331999068239255068e-01 2.023141668396115922e-01 6.340463785033342847e-02
-1.611970162765181402e-01 -2.739158269639515586e-01 1.403960359135289770e-01
-3.073450752598752556e-01 3.148238217344252465e-01 -9.603939799699823254e-02
-3.520867745763481271e-01 1.059667274573896367e-01 -5.644116028608535396e-02
-2.997317770803357706e-01 6.304584217215117303e-02 -1.289470322188371043e-01
-3.812572069223628679e-01 8.581016220759193902e-02 9.298904539630090810e-03
-3.205586371715797855e-01 -1.870946142968334114e-02 1.918357700730422555e-01
-3.545042513417127200e-02 -2.687102423608694890e-01 1.860706216601140106e-01
9.483380386345799384e-02 -3.879298072167838285e-01 -2.044378642608747354e-01
1.758169482029479924e-01 -3.007924324552954110e-01 2.641433802657136010e-01
-7.423596307808022488e-02 -7.916887938936235936e-02 -1.881831403098792876e-01
-4.046188753107045621e-01 1.295596298338887176e-01 1.500667696513636740e-01
-1.891807918848343456e-03 -3.064858824467319165e-01 2.685620605041511566e-01
2.327941826011233062e-01 -3.747572353108270526e-01 -1.987726981944455684e-01
3.907894521922226916e-02 -1.322232632747950831e-02 2.867016071976015157e-01
1.775521079511821199e-01 2.350050509120488462e-01 -3.934703845781982456e-02
3.909489361400921847e-01 1.380059331597552619e-01 6.734518081692608682e-02
3.158924300956758024e-01 -3.452920337021546660e-01 2.063885174766167674e-01
3.966601928217856066e-01 1.258148527994389088e-01 -4.208916018036307216e-02
-3.031190198337925801e-01 -1.828001195300091308e-01 2.655787470904425948e-02
-2.051686388819110307e-01 -3.179932281096636837e-01 -8.782425638420479630e-02
-1.747186173144624766e-01 -5.646184800033327011e-02 2.371634715188336850e-01
-2.257534022195076262e-01 -3.868720891140425833e-01 4.568378526195952805e-02
3.358967851813592781e-02 1.721380565832345000e-02 2.380997137070629821e-01
-1.980959463932880638e-01 1.191351795041092620e-01 1.777508107897543543e-01
3.457566228678879972e-01 1.397990508910107177e-01 1.516140525674088690e-01
1.062492068786955179e-01 -3.571255588521310420e-01 -2.771794576216086992e-02
3.093777292508079757e-01 3.383175907282282013e-02 2.419012729288819719e-01
1.978427488776094145e-01 -3.549788534910470750e-01 -8.781165668899573729e-02
-1.245372856672214701e-01 -3.718627971353456463e-01 -1.723262730593951575e-01
1.175792027580057630e-01 -3.794420663916862058e-01 -1.675515873216626983e-01
-3.331202543388775972e-01 2.656063129601617112e-02 -1.134799775595906890e-01
3.314957008361805180e-01 -3.204164300512741814e-01 -1.278856864785869740e-01
2.178201647206201574e-01 -1.692299649196836453e-02 2.948241643010726665e-01
2.088293857466416020e-02 1.970921300022631939e-01 7.847832454236497446e-02
-3.592403631409373244e-01 -6.045694293927500462e-02 1.426037188452273230e-01
4.474493233387496494e-01 5.010384046203986141e-02 1.643615443225979536e-03
3.462158489521940385e-01 -3.231854886832865592e-01 -9.544238326489482005e-02
-2.779415862434511109e-01 -1.985184487370444950e-01 7.410222518690995352e-02
-2.035598435887312763e-01 -3.172628460833876174e-01 1.145198142905881900e-01
8.588416606260813879e-02 -3.742284716679954437e-01 -2.213322674814706126e-01
8.233133329963830682e-02 4.627662151031111115e-01 -1.820980730281175630e-01
-1.909977746193047138e-02 -6.196834045391630408e-02 2.274206665347582035e-01
-4.016672850534729888e-01 1.213952968026983381e-01 1.732985751681950237e-01
3.687397962521104522e-01 -3.704824044113426140e-01 -3.810857771852985132e-02
4.184565741764567637e-01 -7.445168979850000368e-02 1.760967480337239932e-01
1.496725526988920696e-02 -3.586373717644638637e-01 -6.276823739308201588e-02
3.257589417242307550e-01 -3.807840798687684991e-01 7.381217108882903721e-02
1.655330530279022772e-02 4.987381739003524661e-01 -1.314272359736693152e-01
-2.368652657006358742e-01 -2.156340136958690423e-01 -2.970641615941633021e-02
-1.035352531734782255e-01 1.487210443200444876e-01 1.511073632048584581e-01
-2.552665068785257008e-01 -7.726324687861928220e-02 2.216349149818354625e-01
-1.933660331383970366e-01 -1.530275841184640107e-01 -1.518133437244655048e-01
5.491440260319477851e-01 -2.645621666464568200e-01 2.481930410479966584e-02
-3.205121911420679703e-01 1.504438565311822240e-01 -9.534563309448967905e-02
2.064805216353504391e-01 -3.862324858736436717e-01 -1.861938093688544071e-01
-3.911644075471816251e-01 6.578707673590636351e-02 1.649075769348381376e-02
6.565362510443263633e-02 -2.077447249418090114e-01 -2.857385982187540807e-01
-2.491513936489950232e-01 4.721470248713343087e-01 -2.453056733019897684e-01
3.494338546693864789e-01 -1.806025709893350761e-01 2.263701182454807559e-01
-5.519585309084523023e-02 -3.835360259607614175e-01 9.524995118804968630e-02
4.216549473800527692e-01 -1.597537213428113501e-01 1.693055795172936084e-01
-1.537148831093112372e-02 -3.450694807873092573e-01 -2.457082989085955238e-01
2.767363024321896070e-01 -1.330373057458598129e-01 2.832959659318181611e-01
-2.306693924613364977e-01 -5.069873329001565315e-02 -1.768730756316045372e-01
4.689118474724672803e-01 -2.617854354160931152e-01 -9.236936667059514328e-02
-4.072071692432845391e-01 1.257459939007145311e-01 8.138420298871335001e-02
-1.704955194896987936e-01 -3.537656877100655572e-01 2.485419007039682548e-01
3.472071351672448847e-01 -8.452444104243496403e-02 2.437511884208854451e-01
-2.869746449441320513e-01 3.516501749096656582e-01 -2.882615631053886407e-01
